ply
format ascii 1.0
element vertex 1006
property float x
property float y
property float z
property float nx
property float ny
property float nz
property uchar diffuse_red
property uchar diffuse_green
property uchar diffuse_blue
property uchar diffuse_alpha
property float quality
element face 0
property list uchar int vertex_indices
end_header
101.58 -674.056 944 0 0 0 255 255 255 255 200
357.507 193.84 1455 0 0 0 255 255 255 255 200
378.452 183.719 1418 0 0 0 255 255 255 255 200
539.47 -86.2082 1354 0 0 0 255 255 255 255 200
415.873 134.382 1446 0 0 0 255 255 255 255 200
-629.867 -287.615 1393 0 0 0 255 255 255 255 200
516.455 -30.6581 1411 0 0 0 255 255 255 255 200
548.184 -126.49 1358 0 0 0 255 255 255 255 200
547.238 -120.596 1356 0 0 0 255 255 255 255 200
421.427 128.367 1444 0 0 0 255 255 255 255 200
459.272 80.5438 1427 0 0 0 255 255 255 255 200
138.635 -651.454 933 0 0 0 255 255 255 255 200
74.5192 -714.814 986 0 0 0 255 255 255 255 200
377.259 -583.311 1073 0 0 0 255 255 255 255 200
131.629 -663.577 943 0 0 0 255 255 255 255 200
546.702 -114.808 1355 0 0 0 255 255 255 255 200
-611.806 -363.726 1435 0 0 0 255 255 255 255 200
-623.531 -332.324 1403 0 0 0 255 255 255 255 200
118.365 -666.392 940 0 0 0 255 255 255 255 200
427.277 122.45 1443 0 0 0 255 255 255 255 200
94.5137 -690.229 959 0 0 0 255 255 255 255 200
422.055 -567.913 1138 0 0 0 255 255 255 255 200
367.393 195.567 1421 0 0 0 255 255 255 255 200
-627.319 -313.165 1399 0 0 0 255 255 255 255 200
445.1 98.8719 1441 0 0 0 255 255 255 255 200
391.866 163.76 1447 0 0 0 255 255 255 255 200
105.622 -672.135 941 0 0 0 255 255 255 255 200
471.641 68.0783 1408 0 0 0 255 255 255 255 200
139.319 -630.891 911 0 0 0 255 255 255 255 200
413.735 -573.513 1127 0 0 0 255 255 255 255 200
329.087 -608.72 1035 0 0 0 255 255 255 255 200
78.8449 -712.806 983 0 0 0 255 255 255 255 200
525.47 -41.6639 1384 0 0 0 255 255 255 255 200
335.757 -607.657 1042 0 0 0 255 255 255 255 200
404.782 -577.939 1114 0 0 0 255 255 255 255 200
354.251 195.309 1467 0 0 0 255 255 255 255 200
533.226 -57.876 1355 0 0 0 255 255 255 255 200
341.836 -605.392 1047 0 0 0 255 255 255 255 200
431.221 -563.154 1151 0 0 0 255 255 255 255 200
546.577 -109.112 1355 0 0 0 255 255 255 255 200
347.63 -602.528 1051 0 0 0 255 255 255 255 200
395.218 -581.133 1099 0 0 0 255 255 255 255 200
433.135 116.537 1442 0 0 0 255 255 255 255 200
353.46 -599.648 1055 0 0 0 255 255 255 255 200
531.22 -52.5898 1366 0 0 0 255 255 255 255 200
384.71 -582.493 1081 0 0 0 255 255 255 255 200
450.681 92.9027 1439 0 0 0 255 255 255 255 200
455.627 86.823 1435 0 0 0 255 255 255 255 200
482.935 50.6678 1405 0 0 0 255 255 255 255 200
358.989 -596.189 1058 0 0 0 255 255 255 255 200
-631.145 -294.171 1395 0 0 0 255 255 255 255 200
135.731 -662.451 941 0 0 0 255 255 255 255 200
535.954 -63.1786 1346 0 0 0 255 255 255 255 200
122.734 -666.648 940 0 0 0 255 255 255 255 200
398.22 158.038 1448 0 0 0 255 255 255 255 200
364.395 197.08 1433 0 0 0 255 255 255 255 200
83.1461 -710.807 980 0 0 0 255 255 255 255 200
476.8 62.2024 1405 0 0 0 255 255 255 255 200
364.204 -592.165 1060 0 0 0 255 255 255 255 200
98.4472 -686.839 954 0 0 0 255 255 255 255 200
48.7221 -742.036 1016 0 0 0 255 255 255 255 200
109.758 -670.937 939 0 0 0 255 255 255 255 200
541.21 -79.9751 1343 0 0 0 255 255 255 255 200
369.787 -588.698 1063 0 0 0 255 255 255 255 200
53.1584 -738.496 1011 0 0 0 255 255 255 255 200
539.915 -74.1841 1340 0 0 0 255 255 255 255 200
404.317 152.201 1448 0 0 0 255 255 255 255 200
57.4363 -733.504 1004 0 0 0 255 255 255 255 200
529.525 -47.2602 1378 0 0 0 255 255 255 255 200
-628.171 -319.592 1400 0 0 0 255 255 255 255 200
513.664 -19.0893 1421 0 0 0 255 255 255 255 200
546.861 -103.497 1356 0 0 0 255 255 255 255 200
61.6517 -728.521 997 0 0 0 255 255 255 255 200
375.401 -585.224 1066 0 0 0 255 255 255 255 200
87.3335 -708.091 976 0 0 0 255 255 255 255 200
439.307 110.705 1442 0 0 0 255 255 255 255 200
524.012 -36.2128 1397 0 0 0 255 255 255 255 200
420.818 -571.291 1133 0 0 0 255 255 255 255 200
127.244 -667.624 941 0 0 0 255 255 255 255 200
-634.456 -281.044 1389 0 0 0 255 255 255 255 200
140.988 -642.667 920 0 0 0 255 255 255 255 200
378.321 189.44 1417 0 0 0 255 255 255 255 200
412.149 -576.314 1121 0 0 0 255 255 255 255 200
429.589 -566.112 1145 0 0 0 255 255 255 255 200
410.429 146.361 1448 0 0 0 255 255 255 255 200
-631.979 -300.542 1396 0 0 0 255 255 255 255 200
102.231 -682.735 948 0 0 0 255 255 255 255 200
66.0044 -725.738 993 0 0 0 255 255 255 255 200
546.345 -97.7333 1355 0 0 0 255 255 255 255 200
114.001 -670.462 938 0 0 0 255 255 255 255 200
469.12 74.3907 1419 0 0 0 255 255 255 255 200
392.954 -582.689 1091 0 0 0 255 255 255 255 200
403.218 -580.658 1108 0 0 0 255 255 255 255 200
139.521 -659.924 937 0 0 0 255 255 255 255 200
552.771 -133.281 1369 0 0 0 255 255 255 255 200
416.269 140.422 1447 0 0 0 255 255 255 255 200
539.835 -68.5742 1340 0 0 0 255 255 255 255 200
91.3933 -704.658 971 0 0 0 255 255 255 255 200
372.929 195.431 1419 0 0 0 255 255 255 255 200
445.187 104.795 1441 0 0 0 255 255 255 255 200
326.796 -609.122 1026 0 0 0 255 255 255 255 200
-622.865 -347.339 1415 0 0 0 255 255 255 255 200
382.828 -584.463 1074 0 0 0 255 255 255 255 200
70.3938 -723.695 990 0 0 0 255 255 255 255 200
422.117 134.489 1446 0 0 0 255 255 255 255 200
334.402 -609.886 1036 0 0 0 255 255 255 255 200
-629.031 -326.041 1401 0 0 0 255 255 255 255 200
131.629 -667.899 941 0 0 0 255 255 255 255 200
518.624 -24.9208 1417 0 0 0 255 255 255 255 200
340.788 -608.24 1042 0 0 0 255 255 255 255 200
427.675 128.471 1444 0 0 0 255 255 255 255 200
346.565 -605.401 1046 0 0 0 255 255 255 255 200
391.989 169.715 1447 0 0 0 255 255 255 255 200
352.378 -602.547 1050 0 0 0 255 255 255 255 200
118.239 -669.996 937 0 0 0 255 255 255 255 200
106.075 -679.359 943 0 0 0 255 255 255 255 200
-626.179 -339.776 1408 0 0 0 255 255 255 255 200
74.8341 -722.393 988 0 0 0 255 255 255 255 200
-632.823 -306.932 1397 0 0 0 255 255 255 255 200
95.3116 -700.507 965 0 0 0 255 255 255 255 200
545.333 -86.2403 1353 0 0 0 255 255 255 255 200
358.23 -599.677 1054 0 0 0 255 255 255 255 200
465.545 80.616 1427 0 0 0 255 255 255 255 200
546.642 -92.1169 1356 0 0 0 255 255 255 255 200
-635.739 -287.573 1391 0 0 0 255 255 255 255 200
363.43 -595.662 1056 0 0 0 255 255 255 255 200
419.211 -574.134 1127 0 0 0 255 255 255 255 200
451.076 98.8879 1440 0 0 0 255 255 255 255 200
410.196 -578.56 1114 0 0 0 255 255 255 255 200
433.534 122.551 1443 0 0 0 255 255 255 255 200
427.96 -569.033 1139 0 0 0 255 255 255 255 200
522.832 -30.6888 1411 0 0 0 255 255 255 255 200
369.001 -592.211 1059 0 0 0 255 255 255 255 200
374.248 -588.197 1061 0 0 0 255 255 255 255 200
401.29 -582.809 1101 0 0 0 255 255 255 255 200
79.2589 -721.1 986 0 0 0 255 255 255 255 200
142.666 -654.586 929 0 0 0 255 255 255 255 200
135.874 -667.474 940 0 0 0 255 255 255 255 200
528.087 -36.0945 1391 0 0 0 255 255 255 255 200
391.049 -584.726 1084 0 0 0 255 255 255 255 200
437.192 -564.265 1152 0 0 0 255 255 255 255 200
398.616 164.109 1449 0 0 0 255 255 255 255 200
122.604 -670.255 937 0 0 0 255 255 255 255 200
553.953 -120.821 1357 0 0 0 255 255 255 255 200
99.2816 -697.089 960 0 0 0 255 255 255 255 200
553.002 -114.937 1355 0 0 0 255 255 255 255 200
109.994 -676.71 939 0 0 0 255 255 255 255 200
531.4 -41.6773 1383 0 0 0 255 255 255 255 200
539.073 -57.8966 1354 0 0 0 255 255 255 255 200
534.278 -47.1731 1374 0 0 0 255 255 255 255 200
555.318 -126.819 1360 0 0 0 255 255 255 255 200
484.705 56.6646 1410 0 0 0 255 255 255 255 200
-621.688 -356.211 1427 0 0 0 255 255 255 255 200
456.976 92.9836 1439 0 0 0 255 255 255 255 200
461.921 86.8997 1435 0 0 0 255 255 255 255 200
-633.675 -313.343 1398 0 0 0 255 255 255 255 200
439.707 116.715 1443 0 0 0 255 255 255 255 200
380.945 -586.385 1067 0 0 0 255 255 255 255 200
83.7535 -720.548 985 0 0 0 255 255 255 255 200
-630.35 -332.747 1403 0 0 0 255 255 255 255 200
410.545 152.318 1448 0 0 0 255 255 255 255 200
-637.031 -294.129 1393 0 0 0 255 255 255 255 200
552.875 -109.236 1355 0 0 0 255 255 255 255 200
404.994 158.376 1450 0 0 0 255 255 255 255 200
391.304 175.311 1444 0 0 0 255 255 255 255 200
537.495 -52.6466 1366 0 0 0 255 255 255 255 200
126.974 -670.523 937 0 0 0 255 255 255 255 200
102.993 -692.226 953 0 0 0 255 255 255 255 200
417.605 -576.94 1121 0 0 0 255 255 255 255 200
139.967 -666.346 938 0 0 0 255 255 255 255 200
547.037 -80.0055 1342 0 0 0 255 255 255 255 200
333.048 -612.078 1030 0 0 0 255 255 255 255 200
114.125 -675.511 937 0 0 0 255 255 255 255 200
339.414 -610.473 1036 0 0 0 255 255 255 255 200
426.708 -572.422 1134 0 0 0 255 255 255 255 200
408.612 -581.282 1108 0 0 0 255 255 255 255 200
88.0631 -718.542 982 0 0 0 255 255 255 255 200
445.587 110.798 1442 0 0 0 255 255 255 255 200
479.237 68.3356 1412 0 0 0 255 255 255 255 200
345.501 -608.248 1041 0 0 0 255 255 255 255 200
416.67 146.476 1448 0 0 0 255 255 255 255 200
542.581 -63.2957 1347 0 0 0 255 255 255 255 200
351.634 -605.999 1046 0 0 0 255 255 255 255 200
389.539 180.386 1437 0 0 0 255 255 255 255 200
378.996 195.573 1419 0 0 0 255 255 255 255 200
546.135 -74.2675 1340 0 0 0 255 255 255 255 200
399.363 -584.914 1094 0 0 0 255 255 255 255 200
357.133 -602.575 1049 0 0 0 255 255 255 255 200
552.754 -103.538 1355 0 0 0 255 255 255 255 200
388.783 -586.171 1076 0 0 0 255 255 255 255 200
435.922 -567.727 1147 0 0 0 255 255 255 255 200
362.66 -599.144 1052 0 0 0 255 255 255 255 200
422.519 140.534 1447 0 0 0 255 255 255 255 200
66.2837 -733.407 995 0 0 0 255 255 255 255 200
-634.537 -319.774 1399 0 0 0 255 255 255 255 200
368.217 -595.708 1055 0 0 0 255 255 255 255 200
92.2541 -715.814 978 0 0 0 255 255 255 255 200
131.49 -671.516 938 0 0 0 255 255 255 255 200
145.109 -646.433 917 0 0 0 255 255 255 255 200
527.353 -30.6112 1406 0 0 0 255 255 255 255 200
373.45 -591.704 1057 0 0 0 255 255 255 255 200
106.644 -687.37 946 0 0 0 255 255 255 255 200
451.478 104.885 1441 0 0 0 255 255 255 255 200
428.375 134.597 1446 0 0 0 255 255 255 255 200
118.241 -674.321 935 0 0 0 255 255 255 255 200
475.727 74.5117 1420 0 0 0 255 255 255 255 200
70.6921 -731.348 992 0 0 0 255 255 255 255 200
143.892 -664.517 935 0 0 0 255 255 255 255 200
-638.332 -300.715 1395 0 0 0 255 255 255 255 200
552.64 -97.8435 1355 0 0 0 255 255 255 255 200
379.42 -588.814 1061 0 0 0 255 255 255 255 200
96.3127 -712.361 973 0 0 0 255 255 255 255 200
434.239 128.665 1445 0 0 0 255 255 255 255 200
-634.954 -325.993 1399 0 0 0 255 255 255 255 200
521.164 -19.1483 1424 0 0 0 255 255 255 255 200
416.001 -579.709 1115 0 0 0 255 255 255 255 200
388.319 185.67 1432 0 0 0 255 255 255 255 200
425.082 -575.274 1128 0 0 0 255 255 255 255 200
-641.156 -287.327 1388 0 0 0 255 255 255 255 200
550.8 -86.2099 1351 0 0 0 255 255 255 255 200
398.742 170.076 1449 0 0 0 255 255 255 255 200
75.2274 -730.773 991 0 0 0 255 255 255 255 200
407.029 -583.968 1102 0 0 0 255 255 255 255 200
135.875 -671.803 938 0 0 0 255 255 255 255 200
457.378 98.974 1440 0 0 0 255 255 255 255 200
-638.728 -306.89 1395 0 0 0 255 255 255 255 200
434.273 -570.664 1141 0 0 0 255 255 255 255 200
122.606 -674.582 935 0 0 0 255 255 255 255 200
110.351 -683.247 940 0 0 0 255 255 255 255 200
552.532 -92.1528 1355 0 0 0 255 255 255 255 200
397.435 -586.971 1087 0 0 0 255 255 255 255 200
472.167 80.7459 1428 0 0 0 255 255 255 255 200
-629.728 -347.777 1415 0 0 0 255 255 255 255 200
440.112 122.738 1444 0 0 0 255 255 255 255 200
485.793 62.616 1413 0 0 0 255 255 255 255 200
100.329 -708.917 968 0 0 0 255 255 255 255 200
547.276 -68.8049 1343 0 0 0 255 255 255 255 200
386.515 -587.557 1068 0 0 0 255 255 255 255 200
-632.578 -339.967 1407 0 0 0 255 255 255 255 200
79.6761 -729.47 989 0 0 0 255 255 255 255 200
331.694 -614.233 1024 0 0 0 255 255 255 255 200
405.118 164.347 1450 0 0 0 255 255 255 255 200
338.368 -613.263 1031 0 0 0 255 255 255 255 200
560.367 -133.724 1372 0 0 0 255 255 255 255 200
344.44 -611.07 1036 0 0 0 255 255 255 255 200
525.768 -24.981 1419 0 0 0 255 255 255 255 200
147.32 -660.562 929 0 0 0 255 255 255 255 200
536.952 -41.6613 1381 0 0 0 255 255 255 255 200
350.556 -608.85 1041 0 0 0 255 255 255 255 200
467.905 86.917 1434 0 0 0 255 255 255 255 200
356.378 -606.026 1045 0 0 0 255 255 255 255 200
416.788 152.437 1448 0 0 0 255 255 255 255 200
445.993 116.814 1443 0 0 0 255 255 255 255 200
361.892 -602.611 1048 0 0 0 255 255 255 255 200
140.117 -671.384 937 0 0 0 255 255 255 255 200
463.288 93.0657 1439 0 0 0 255 255 255 255 200
126.977 -674.852 935 0 0 0 255 255 255 255 200
411.233 158.498 1450 0 0 0 255 255 255 255 200
104.086 -704.015 961 0 0 0 255 255 255 255 200
84.1946 -728.915 988 0 0 0 255 255 255 255 200
114.373 -681.311 937 0 0 0 255 255 255 255 200
540.195 -47.1896 1373 0 0 0 255 255 255 255 200
367.436 -599.189 1051 0 0 0 255 255 255 255 200
422.634 146.491 1447 0 0 0 255 255 255 255 200
372.655 -595.196 1053 0 0 0 255 255 255 255 200
534.817 -36.1582 1392 0 0 0 255 255 255 255 200
414.398 -582.442 1109 0 0 0 255 255 255 255 200
-636.287 -332.7 1401 0 0 0 255 255 255 255 200
423.834 -578.606 1123 0 0 0 255 255 255 255 200
-628.149 -356.405 1426 0 0 0 255 255 255 255 200
-642.924 -294.091 1391 0 0 0 255 255 255 255 200
378.254 -591.766 1056 0 0 0 255 255 255 255 200
405.448 -586.617 1096 0 0 0 255 255 255 255 200
-640.048 -313.525 1397 0 0 0 255 255 255 255 200
545.736 -58.0035 1355 0 0 0 255 255 255 255 200
433.007 -574.068 1136 0 0 0 255 255 255 255 200
451.884 110.893 1442 0 0 0 255 255 255 255 200
395.141 -588.435 1079 0 0 0 255 255 255 255 200
88.7075 -728.369 987 0 0 0 255 255 255 255 200
387.917 191.319 1430 0 0 0 255 255 255 255 200
552.877 -80.037 1341 0 0 0 255 255 255 255 200
543.789 -52.7041 1366 0 0 0 255 255 255 255 200
428.783 140.648 1447 0 0 0 255 255 255 255 200
131.352 -675.133 935 0 0 0 255 255 255 255 200
107.669 -698.387 953 0 0 0 255 255 255 255 200
144.509 -671.69 937 0 0 0 255 255 255 255 200
532.608 -30.5772 1403 0 0 0 255 255 255 255 200
118.372 -679.384 934 0 0 0 255 255 255 255 200
560.562 -115.324 1358 0 0 0 255 255 255 255 200
442.291 -569.354 1149 0 0 0 255 255 255 255 200
384.971 -589.995 1062 0 0 0 255 255 255 255 200
434.648 134.708 1446 0 0 0 255 255 255 255 200
93.1202 -727.095 985 0 0 0 255 255 255 255 200
328.069 -612.112 1011 0 0 0 255 255 255 255 200
-640.461 -319.732 1397 0 0 0 255 255 255 255 200
481.681 74.529 1419 0 0 0 255 255 255 255 200
457.785 104.976 1441 0 0 0 255 255 255 255 200
398.872 176.05 1449 0 0 0 255 255 255 255 200
560.02 -109.522 1357 0 0 0 255 255 255 255 200
-643.777 -300.461 1392 0 0 0 255 255 255 255 200
149.392 -650.922 915 0 0 0 255 255 255 255 200
562.349 -121.405 1362 0 0 0 255 255 255 255 200
421.833 -580.87 1116 0 0 0 255 255 255 255 200
486.543 68.5458 1415 0 0 0 255 255 255 255 200
135.879 -676.145 936 0 0 0 255 255 255 255 200
337.324 -616.028 1026 0 0 0 255 255 255 255 200
343.38 -613.865 1031 0 0 0 255 255 255 255 200
111.182 -692.765 945 0 0 0 255 255 255 255 200
349.48 -611.676 1036 0 0 0 255 255 255 255 200
440.522 128.773 1445 0 0 0 255 255 255 255 200
412.796 -585.138 1103 0 0 0 255 255 255 255 200
355.285 -608.877 1040 0 0 0 255 255 255 255 200
97.3198 -724.354 981 0 0 0 255 255 255 255 200
122.479 -678.193 932 0 0 0 255 255 255 255 200
553.2 -74.463 1342 0 0 0 255 255 255 255 200
148.431 -669.855 934 0 0 0 255 255 255 255 200
361.128 -606.062 1044 0 0 0 255 255 255 255 200
403.497 -588.689 1089 0 0 0 255 255 255 255 200
559.897 -103.809 1357 0 0 0 255 255 255 255 200
431.744 -577.447 1131 0 0 0 255 255 255 255 200
75.4717 -737.743 992 0 0 0 255 255 255 255 200
366.658 -602.655 1047 0 0 0 255 255 255 255 200
392.846 -589.841 1071 0 0 0 255 255 255 255 200
463.696 99.0614 1440 0 0 0 255 255 255 255 200
371.863 -598.672 1049 0 0 0 255 255 255 255 200
478.144 80.7638 1427 0 0 0 255 255 255 255 200
550.462 -63.5549 1351 0 0 0 255 255 255 255 200
446.404 122.841 1444 0 0 0 255 255 255 255 200
377.09 -594.691 1051 0 0 0 255 255 255 255 200
101.382 -720.883 976 0 0 0 255 255 255 255 200
-641.341 -326.184 1398 0 0 0 255 255 255 255 200
441.01 -572.806 1144 0 0 0 255 255 255 255 200
468.965 93.0196 1437 0 0 0 255 255 255 255 200
140.27 -676.445 936 0 0 0 255 255 255 255 200
405.805 170.558 1452 0 0 0 255 255 255 255 200
557.095 -86.3082 1351 0 0 0 255 255 255 255 200
79.935 -736.43 990 0 0 0 255 255 255 255 200
-635.717 -347.728 1413 0 0 0 255 255 255 255 200
411.642 164.587 1451 0 0 0 255 255 255 255 200
114.747 -687.882 938 0 0 0 255 255 255 255 200
126.845 -678.466 932 0 0 0 255 255 255 255 200
496.157 51.4386 1425 0 0 0 255 255 255 255 200
559.781 -98.0999 1357 0 0 0 255 255 255 255 200
-638.54 -339.921 1405 0 0 0 255 255 255 255 200
423.046 152.559 1448 0 0 0 255 255 255 255 200
383.065 -591.836 1055 0 0 0 255 255 255 255 200
536.703 -30.4782 1397 0 0 0 255 255 255 255 200
417.487 158.623 1450 0 0 0 255 255 255 255 200
-645.102 -307.072 1394 0 0 0 255 255 255 255 200
474.228 86.996 1434 0 0 0 255 255 255 255 200
452.296 116.914 1443 0 0 0 255 255 255 255 200
540.021 -36.1185 1389 0 0 0 255 255 255 255 200
105.294 -716.681 970 0 0 0 255 255 255 255 200
542.9 -41.6759 1380 0 0 0 255 255 255 255 200
420.211 -583.612 1110 0 0 0 255 255 255 255 200
428.9 146.61 1447 0 0 0 255 255 255 255 200
152.004 -666.592 929 0 0 0 255 255 255 255 200
559.26 -92.326 1356 0 0 0 255 255 255 255 200
553.943 -68.9345 1344 0 0 0 255 255 255 255 200
378.33 204.136 1439 0 0 0 255 255 255 255 200
84.5538 -736.615 990 0 0 0 255 255 255 255 200
398.457 181.778 1447 0 0 0 255 255 255 255 200
411.195 -587.797 1097 0 0 0 255 255 255 255 200
382.08 203.006 1430 0 0 0 255 255 255 255 200
565.796 -127.898 1370 0 0 0 255 255 255 255 200
401.174 -590.167 1081 0 0 0 255 255 255 255 200
546.123 -47.2067 1372 0 0 0 255 255 255 255 200
430.101 -580.283 1125 0 0 0 255 255 255 255 200
144.668 -676.755 936 0 0 0 255 255 255 255 200
495.165 57.2018 1422 0 0 0 255 255 255 255 200
-648.357 -293.845 1388 0 0 0 255 255 255 255 200
131.217 -678.749 932 0 0 0 255 255 255 255 200
118.633 -685.206 934 0 0 0 255 255 255 255 200
108.927 -711.008 962 0 0 0 255 255 255 255 200
-642.231 -332.658 1399 0 0 0 255 255 255 255 200
458.197 110.99 1442 0 0 0 255 255 255 255 200
390.916 -591.744 1064 0 0 0 255 255 255 255 200
435.063 140.763 1447 0 0 0 255 255 255 255 200
-628.673 -366.397 1442 0 0 0 255 255 255 255 200
342.655 -617.235 1027 0 0 0 255 255 255 255 200
329.962 -620.264 1015 0 0 0 255 255 255 255 200
336.611 -619.373 1022 0 0 0 255 255 255 255 200
348.744 -615.072 1032 0 0 0 255 255 255 255 200
388.604 197.51 1432 0 0 0 255 255 255 255 200
89.1762 -736.81 990 0 0 0 255 255 255 255 200
354.536 -612.293 1036 0 0 0 255 255 255 255 200
439.73 -576.232 1139 0 0 0 255 255 255 255 200
360.366 -609.498 1040 0 0 0 255 255 255 255 200
365.883 -606.106 1043 0 0 0 255 255 255 255 200
440.937 134.82 1446 0 0 0 255 255 255 255 200
487.643 74.5471 1418 0 0 0 255 255 255 255 200
483.112 80.6127 1423 0 0 0 255 255 255 255 200
-646.437 -313.712 1396 0 0 0 255 255 255 255 200
371.429 -602.709 1046 0 0 0 255 255 255 255 200
494.178 62.9423 1419 0 0 0 255 255 255 255 200
112.136 -703.123 951 0 0 0 255 255 255 255 200
135.594 -679.041 932 0 0 0 255 255 255 255 200
533.701 -25.0768 1423 0 0 0 255 255 255 255 200
376.646 -598.733 1048 0 0 0 255 255 255 255 200
148.912 -676.351 935 0 0 0 255 255 255 255 200
122.749 -684.005 932 0 0 0 255 255 255 255 200
446.511 128.792 1444 0 0 0 255 255 255 255 200
93.6129 -735.527 988 0 0 0 255 255 255 255 200
464.109 105.069 1441 0 0 0 255 255 255 255 200
418.589 -586.318 1104 0 0 0 255 255 255 255 200
397.494 187.236 1443 0 0 0 255 255 255 255 200
409.22 -589.878 1090 0 0 0 255 255 255 255 200
559.562 -80.1891 1342 0 0 0 255 255 255 255 200
550.507 -52.8009 1367 0 0 0 255 255 255 255 200
382.249 -595.327 1051 0 0 0 255 255 255 255 200
154.358 -658.309 917 0 0 0 255 255 255 255 200
398.851 -591.587 1073 0 0 0 255 255 255 255 200
428.459 -583.083 1119 0 0 0 255 255 255 255 200
-649.687 -300.427 1390 0 0 0 255 255 255 255 200
479.227 86.8333 1430 0 0 0 255 255 255 255 200
469.704 99.0814 1439 0 0 0 255 255 255 255 200
98.1343 -734.998 987 0 0 0 255 255 255 255 200
438.067 -579.121 1133 0 0 0 255 255 255 255 200
388.618 -593.037 1056 0 0 0 255 255 255 255 200
140.126 -680.072 933 0 0 0 255 255 255 255 200
553.652 -58.24 1359 0 0 0 255 255 255 255 200
115.493 -696.721 942 0 0 0 255 255 255 255 200
-635.962 -357.355 1428 0 0 0 255 255 255 255 200
126.852 -682.813 930 0 0 0 255 255 255 255 200
452.713 122.947 1444 0 0 0 255 255 255 255 200
-647.319 -320.152 1397 0 0 0 255 255 255 255 200
474.971 93.0394 1436 0 0 0 255 255 255 255 200
152.99 -675.232 933 0 0 0 255 255 255 255 200
417.902 164.716 1451 0 0 0 255 255 255 255 200
559.472 -74.5489 1342 0 0 0 255 255 255 255 200
406.497 176.792 1454 0 0 0 255 255 255 255 200
429.318 152.682 1448 0 0 0 255 255 255 255 200
423.755 158.749 1450 0 0 0 255 255 255 255 200
102.442 -732.989 984 0 0 0 255 255 255 255 200
562.578 -86.28 1349 0 0 0 255 255 255 255 200
493.894 68.7573 1418 0 0 0 255 255 255 255 200
542.318 -30.4668 1395 0 0 0 255 255 255 255 200
-641.713 -347.684 1411 0 0 0 255 255 255 255 200
353.447 -615.097 1031 0 0 0 255 255 255 255 200
412.624 170.925 1454 0 0 0 255 255 255 255 200
567.623 -109.891 1360 0 0 0 255 255 255 255 200
341.933 -620.591 1023 0 0 0 255 255 255 255 200
80.4393 -745.694 994 0 0 0 255 255 255 255 200
348.01 -618.453 1028 0 0 0 255 255 255 255 200
335.901 -622.703 1018 0 0 0 255 255 255 255 200
435.182 146.73 1447 0 0 0 255 255 255 255 200
416.97 -588.987 1098 0 0 0 255 255 255 255 200
329.262 -623.557 1011 0 0 0 255 255 255 255 200
359.26 -612.328 1035 0 0 0 255 255 255 255 200
426.435 -585.32 1112 0 0 0 255 255 255 255 200
458.615 117.016 1443 0 0 0 255 255 255 255 200
-644.508 -339.88 1403 0 0 0 255 255 255 255 200
557.164 -63.6742 1352 0 0 0 255 255 255 255 200
407.244 -591.911 1083 0 0 0 255 255 255 255 200
144.52 -680.385 933 0 0 0 255 255 255 255 200
119.151 -692.545 936 0 0 0 255 255 255 255 200
365.111 -609.542 1039 0 0 0 255 255 255 255 200
131.224 -683.099 930 0 0 0 255 255 255 255 200
-647.746 -326.379 1397 0 0 0 255 255 255 255 200
-651.026 -307.038 1392 0 0 0 255 255 255 255 200
396.811 192.801 1440 0 0 0 255 255 255 255 200
106.618 -730.244 980 0 0 0 255 255 255 255 200
370.644 -606.16 1042 0 0 0 255 255 255 255 200
546.006 -36.1313 1388 0 0 0 255 255 255 255 200
396.898 -593.505 1066 0 0 0 255 255 255 255 200
548.86 -41.6911 1379 0 0 0 255 255 255 255 200
375.847 -602.194 1044 0 0 0 255 255 255 255 200
85.0016 -745.132 993 0 0 0 255 255 255 255 200
567.498 -104.159 1360 0 0 0 255 255 255 255 200
381.072 -598.231 1046 0 0 0 255 255 255 255 200
156.548 -671.95 928 0 0 0 255 255 255 255 200
488.405 80.519 1420 0 0 0 255 255 255 255 200
436.793 -582.489 1128 0 0 0 255 255 255 255 200
566.546 -98.2857 1358 0 0 0 255 255 255 255 200
483.869 86.6107 1425 0 0 0 255 255 255 255 200
441.358 140.88 1447 0 0 0 255 255 255 255 200
110.193 -723.781 971 0 0 0 255 255 255 255 200
569.841 -116.052 1365 0 0 0 255 255 255 255 200
464.527 111.088 1442 0 0 0 255 255 255 255 200
446.933 134.841 1445 0 0 0 255 255 255 255 200
135.601 -683.394 930 0 0 0 255 255 255 255 200
387.424 -595.973 1051 0 0 0 255 255 255 255 200
123.022 -689.855 932 0 0 0 255 255 255 255 200
148.919 -680.707 933 0 0 0 255 255 255 255 200
566.018 -92.5008 1357 0 0 0 255 255 255 255 200
89.5583 -744.579 992 0 0 0 255 255 255 255 200
479.646 92.8009 1431 0 0 0 255 255 255 255 200
113.57 -716.577 961 0 0 0 255 255 255 255 200
424.411 -587.509 1105 0 0 0 255 255 255 255 200
470.123 105.09 1440 0 0 0 255 255 255 255 200
475.059 98.9646 1436 0 0 0 255 255 255 255 200
414.97 -591.078 1091 0 0 0 255 255 255 255 200
446.893 -578.915 1143 0 0 0 255 255 255 255 200
493.963 74.6188 1418 0 0 0 255 255 255 255 200
553.271 -47.3277 1374 0 0 0 255 255 255 255 200
405.269 -593.897 1076 0 0 0 255 255 255 255 200
-652.376 -313.678 1394 0 0 0 255 255 255 255 200
-649.11 -333.096 1399 0 0 0 255 255 255 255 200
453.135 128.992 1445 0 0 0 255 255 255 255 200
94.2044 -744.788 992 0 0 0 255 255 255 255 200
394.571 -594.812 1058 0 0 0 255 255 255 255 200
434.745 -584.788 1121 0 0 0 255 255 255 255 200
396.132 198.348 1437 0 0 0 255 255 255 255 200
139.984 -683.7 930 0 0 0 255 255 255 255 200
116.735 -708.633 950 0 0 0 255 255 255 255 200
127.134 -688.654 930 0 0 0 255 255 255 255 200
159.547 -666.501 920 0 0 0 255 255 255 255 200
352.703 -618.478 1027 0 0 0 255 255 255 255 200
153.16 -680.31 932 0 0 0 255 255 255 255 200
358.504 -615.728 1031 0 0 0 255 255 255 255 200
347.279 -621.819 1024 0 0 0 255 255 255 255 200
341.214 -623.932 1019 0 0 0 255 255 255 255 200
390.382 204.293 1438 0 0 0 255 255 255 255 200
562.307 -69.2707 1349 0 0 0 255 255 255 255 200
504.991 51.7417 1432 0 0 0 255 255 255 255 200
335.193 -626.019 1014 0 0 0 255 255 255 255 200
364.342 -612.963 1035 0 0 0 255 255 255 255 200
328.892 -627.458 1008 0 0 0 255 255 255 255 200
424.177 164.848 1451 0 0 0 255 255 255 255 200
369.862 -609.596 1038 0 0 0 255 255 255 255 200
375.051 -605.639 1040 0 0 0 255 255 255 255 200
459.038 123.054 1444 0 0 0 255 255 255 255 200
98.7548 -744.256 991 0 0 0 255 255 255 255 200
488.485 86.3886 1420 0 0 0 255 255 255 255 200
380.262 -601.686 1042 0 0 0 255 255 255 255 200
430.038 158.877 1450 0 0 0 255 255 255 255 200
435.606 152.807 1448 0 0 0 255 255 255 255 200
483.954 92.4983 1425 0 0 0 255 255 255 255 200
557.256 -52.8988 1368 0 0 0 255 255 255 255 200
-642.02 -357.31 1426 0 0 0 255 255 255 255 200
407.194 183.048 1456 0 0 0 255 255 255 255 200
445.212 -581.83 1137 0 0 0 255 255 255 255 200
120.057 -702.185 941 0 0 0 255 255 255 255 200
422.772 -590.188 1099 0 0 0 255 255 255 255 200
-653.267 -320.118 1395 0 0 0 255 255 255 255 200
131.375 -688.202 929 0 0 0 255 255 255 255 200
144.373 -684.015 930 0 0 0 255 255 255 255 200
501.93 63.1814 1423 0 0 0 255 255 255 255 200
-647.256 -347.397 1408 0 0 0 255 255 255 255 200
503.987 57.5396 1429 0 0 0 255 255 255 255 200
386.233 -598.882 1046 0 0 0 255 255 255 255 200
413.352 -593.668 1085 0 0 0 255 255 255 255 200
441.479 146.852 1447 0 0 0 255 255 255 255 200
413.327 177.172 1456 0 0 0 255 255 255 255 200
574.156 -122.706 1375 0 0 0 255 255 255 255 200
103.091 -742.232 988 0 0 0 255 255 255 255 200
419.187 171.177 1455 0 0 0 255 255 255 255 200
479.735 98.711 1431 0 0 0 255 255 255 255 200
157.399 -679.921 931 0 0 0 255 255 255 255 200
493.69 80.4262 1417 0 0 0 255 255 255 255 200
403.293 -595.835 1069 0 0 0 255 255 255 255 200
464.95 117.119 1443 0 0 0 255 255 255 255 200
433.086 -587.566 1115 0 0 0 255 255 255 255 200
-656.485 -306.787 1389 0 0 0 255 255 255 255 200
567.544 -80.5221 1346 0 0 0 255 255 255 255 200
568.907 -86.3808 1349 0 0 0 255 255 255 255 200
-650.483 -339.843 1401 0 0 0 255 255 255 255 200
392.99 -597.196 1052 0 0 0 255 255 255 255 200
-653.699 -326.346 1395 0 0 0 255 255 255 255 200
107.404 -740.217 985 0 0 0 255 255 255 255 200
475.483 104.966 1437 0 0 0 255 255 255 255 200
470.547 111.11 1441 0 0 0 255 255 255 255 200
123.696 -697.982 935 0 0 0 255 255 255 255 200
500.937 68.9213 1420 0 0 0 255 255 255 255 200
561.215 -58.4348 1362 0 0 0 255 255 255 255 200
135.611 -687.76 928 0 0 0 255 255 255 255 200
447.669 141 1447 0 0 0 255 255 255 255 200
148.768 -684.34 930 0 0 0 255 255 255 255 200
406.218 188.547 1452 0 0 0 255 255 255 255 200
552.4 -36.1705 1388 0 0 0 255 255 255 255 200
443.533 -584.708 1131 0 0 0 255 255 255 255 200
555.234 -41.737 1379 0 0 0 255 255 255 255 200
549.51 -30.5431 1397 0 0 0 255 255 255 255 200
420.749 -592.288 1092 0 0 0 255 255 255 255 200
161.287 -678.081 928 0 0 0 255 255 255 255 200
111.58 -737.46 981 0 0 0 255 255 255 255 200
357.75 -619.115 1027 0 0 0 255 255 255 255 200
352.306 -622.452 1024 0 0 0 255 255 255 255 200
453.563 135.05 1446 0 0 0 255 255 255 255 200
346.551 -625.171 1020 0 0 0 255 255 255 255 200
326.563 -627.588 999 0 0 0 255 255 255 255 200
340.497 -627.258 1015 0 0 0 255 255 255 255 200
363.576 -616.37 1031 0 0 0 255 255 255 255 200
430.65 -589.244 1107 0 0 0 255 255 255 255 200
488.57 92.2611 1420 0 0 0 255 255 255 255 200
369.083 -613.016 1034 0 0 0 255 255 255 255 200
334.82 -629.943 1011 0 0 0 255 255 255 255 200
567.874 -74.914 1347 0 0 0 255 255 255 255 200
484.043 98.3891 1425 0 0 0 255 255 255 255 200
411.735 -596.221 1079 0 0 0 255 255 255 255 200
374.619 -609.657 1037 0 0 0 255 255 255 255 200
499.949 74.6389 1417 0 0 0 255 255 255 255 200
400.939 -597.162 1061 0 0 0 255 255 255 255 200
564.731 -63.889 1355 0 0 0 255 255 255 255 200
127.557 -695.279 931 0 0 0 255 255 255 255 200
115.248 -731.703 973 0 0 0 255 255 255 255 200
139.995 -688.068 928 0 0 0 255 255 255 255 200
493.422 86.2281 1416 0 0 0 255 255 255 255 200
379.82 -605.709 1039 0 0 0 255 255 255 255 200
153.335 -685.412 931 0 0 0 255 255 255 255 200
-657.849 -313.423 1391 0 0 0 255 255 255 255 200
573.342 -98.4731 1359 0 0 0 255 255 255 255 200
-654.609 -332.824 1396 0 0 0 255 255 255 255 200
385.043 -601.764 1041 0 0 0 255 255 255 255 200
572.386 -92.609 1357 0 0 0 255 255 255 255 200
459.466 129.104 1445 0 0 0 255 255 255 255 200
559.236 -47.3461 1373 0 0 0 255 255 255 255 200
118.354 -722.943 961 0 0 0 255 255 255 255 200
479.829 104.625 1431 0 0 0 255 255 255 255 200
396.836 204.588 1439 0 0 0 255 255 255 255 200
94.6099 -752.627 994 0 0 0 255 255 255 255 200
441.855 -587.549 1125 0 0 0 255 255 255 255 200
164.618 -674.055 922 0 0 0 255 255 255 255 200
391.784 -600.115 1047 0 0 0 255 255 255 255 200
575.571 -104.588 1364 0 0 0 255 255 255 255 200
510.585 46.3369 1448 0 0 0 255 255 255 255 200
131.67 -694.078 929 0 0 0 255 255 255 255 200
436.337 159.008 1450 0 0 0 255 255 255 255 200
144.384 -688.387 928 0 0 0 255 255 255 255 200
430.764 165.095 1452 0 0 0 255 255 255 255 200
465.38 123.163 1444 0 0 0 255 255 255 255 200
121.224 -713.434 948 0 0 0 255 255 255 255 200
-647.629 -357.018 1423 0 0 0 255 255 255 255 200
475.582 110.903 1437 0 0 0 255 255 255 255 200
157.748 -685.758 931 0 0 0 255 255 255 255 200
470.65 117.062 1441 0 0 0 255 255 255 255 200
428.992 -591.939 1101 0 0 0 255 255 255 255 200
499.319 80.391 1415 0 0 0 255 255 255 255 200
99.1801 -752.092 993 0 0 0 255 255 255 255 200
419.497 -595.436 1087 0 0 0 255 255 255 255 200
442.215 153.041 1449 0 0 0 255 255 255 255 200
318.008 -615.599 971 0 0 0 255 255 255 255 200
425.482 171.313 1455 0 0 0 255 255 255 255 200
447.792 146.977 1447 0 0 0 255 255 255 255 200
409.736 -598.179 1072 0 0 0 255 255 255 255 200
-655.528 -339.325 1397 0 0 0 255 255 255 255 200
406.085 194.422 1451 0 0 0 255 255 255 255 200
-659.223 -320.089 1393 0 0 0 255 255 255 255 200
-653.261 -347.362 1406 0 0 0 255 255 255 255 200
399.34 -599.567 1055 0 0 0 255 255 255 255 200
488.661 98.1369 1420 0 0 0 255 255 255 255 200
351.224 -625.196 1019 0 0 0 255 255 255 255 200
452.416 -584.554 1141 0 0 0 255 255 255 255 200
357 -622.486 1023 0 0 0 255 255 255 255 200
124.507 -706.94 939 0 0 0 255 255 255 255 200
135.77 -692.886 927 0 0 0 255 255 255 255 200
362.813 -619.761 1027 0 0 0 255 255 255 255 200
148.78 -688.716 928 0 0 0 255 255 255 255 200
345.826 -628.509 1016 0 0 0 255 255 255 255 200
368.306 -616.423 1030 0 0 0 255 255 255 255 200
484.139 104.283 1425 0 0 0 255 255 255 255 200
103.745 -751.567 992 0 0 0 255 255 255 255 200
439.785 -589.826 1118 0 0 0 255 255 255 255 200
512.479 51.9016 1435 0 0 0 255 255 255 255 200
493.508 92.0897 1416 0 0 0 255 255 255 255 200
578.23 -110.829 1370 0 0 0 255 255 255 255 200
340.12 -631.194 1012 0 0 0 255 255 255 255 200
373.83 -613.078 1033 0 0 0 255 255 255 255 200
333.786 -632.607 1006 0 0 0 255 255 255 255 200
414.604 183.692 1460 0 0 0 255 255 255 255 200
161.993 -685.377 930 0 0 0 255 255 255 255 200
420.478 177.676 1459 0 0 0 255 255 255 255 200
379.383 -609.728 1036 0 0 0 255 255 255 255 200
453.996 141.121 1447 0 0 0 255 255 255 255 200
384.225 -605.205 1037 0 0 0 255 255 255 255 200
-659.66 -326.317 1393 0 0 0 255 255 255 255 200
479.929 110.542 1431 0 0 0 255 255 255 255 200
166.616 -664.914 909 0 0 0 255 255 255 255 200
498.695 86.1293 1413 0 0 0 255 255 255 255 200
564.86 -53.075 1371 0 0 0 255 255 255 255 200
570.741 -69.6085 1354 0 0 0 255 255 255 255 200
108.305 -751.053 991 0 0 0 255 255 255 255 200
427.336 -594.597 1095 0 0 0 255 255 255 255 200
128.259 -703.463 934 0 0 0 255 255 255 255 200
390.58 -603.009 1042 0 0 0 255 255 255 255 200
140.008 -692.45 926 0 0 0 255 255 255 255 200
459.9 135.168 1446 0 0 0 255 255 255 255 200
417.861 -598.005 1081 0 0 0 255 255 255 255 200
153.347 -689.797 929 0 0 0 255 255 255 255 200
555.547 -30.5543 1396 0 0 0 255 255 255 255 200
509.736 63.4217 1427 0 0 0 255 255 255 255 200
407.737 -600.09 1065 0 0 0 255 255 255 255 200
437.322 -591.524 1110 0 0 0 255 255 255 255 200
405.117 199.881 1447 0 0 0 255 255 255 255 200
511.819 57.7578 1433 0 0 0 255 255 255 255 200
450.719 -587.458 1135 0 0 0 255 255 255 255 200
508.016 69.0867 1422 0 0 0 255 255 255 255 200
465.492 129.129 1444 0 0 0 255 255 255 255 200
561.63 -41.7836 1379 0 0 0 255 255 255 255 200
112.519 -748.274 987 0 0 0 255 255 255 255 200
166.236 -685.005 929 0 0 0 255 255 255 255 200
-663.32 -313.172 1388 0 0 0 255 255 255 255 200
559.217 -36.2365 1389 0 0 0 255 255 255 255 200
476.017 116.924 1438 0 0 0 255 255 255 255 200
397.742 -601.935 1049 0 0 0 255 255 255 255 200
471.085 123.102 1442 0 0 0 255 255 255 255 200
-657.396 -346.341 1400 0 0 0 255 255 255 255 200
132.112 -700.746 930 0 0 0 255 255 255 255 200
116.581 -744.746 982 0 0 0 255 255 255 255 200
144.398 -692.772 926 0 0 0 255 255 255 255 200
568.828 -58.6309 1365 0 0 0 255 255 255 255 200
-660.579 -332.796 1394 0 0 0 255 255 255 255 200
488.757 104.016 1420 0 0 0 255 255 255 255 200
516.358 46.3188 1446 0 0 0 255 255 255 255 200
157.761 -690.146 929 0 0 0 255 255 255 255 200
493.6 97.9545 1416 0 0 0 255 255 255 255 200
119.983 -737.433 972 0 0 0 255 255 255 255 200
437.073 165.23 1452 0 0 0 255 255 255 255 200
442.651 159.141 1450 0 0 0 255 255 255 255 200
484.24 110.181 1425 0 0 0 255 255 255 255 200
356.252 -625.843 1019 0 0 0 255 255 255 255 200
507.016 74.8181 1419 0 0 0 255 255 255 255 200
362.053 -623.138 1023 0 0 0 255 255 255 255 200
448.229 153.064 1448 0 0 0 255 255 255 255 200
350.834 -629.152 1016 0 0 0 255 255 255 255 200
367.892 -620.418 1027 0 0 0 255 255 255 255 200
373.043 -616.485 1029 0 0 0 255 255 255 255 200
345.104 -631.832 1012 0 0 0 255 255 255 255 200
425.681 -597.218 1089 0 0 0 255 255 255 255 200
339.41 -634.497 1008 0 0 0 255 255 255 255 200
378.583 -613.149 1032 0 0 0 255 255 255 255 200
123.168 -729.366 961 0 0 0 255 255 255 255 200
435.251 -593.701 1103 0 0 0 255 255 255 255 200
577.817 -86.8676 1355 0 0 0 255 255 255 255 200
332.755 -635.244 1001 0 0 0 255 255 255 255 200
505.306 80.4136 1414 0 0 0 255 255 255 255 200
170.293 -683.905 927 0 0 0 255 255 255 255 200
449.024 -590.325 1129 0 0 0 255 255 255 255 200
414.465 189.603 1459 0 0 0 255 255 255 255 200
582.586 -117.465 1380 0 0 0 255 255 255 255 200
383.782 -609.219 1034 0 0 0 255 255 255 255 200
498.782 91.9842 1413 0 0 0 255 255 255 255 200
416.227 -600.537 1075 0 0 0 255 255 255 255 200
454.121 147.103 1447 0 0 0 255 255 255 255 200
480.034 116.462 1431 0 0 0 255 255 255 255 200
136.225 -699.545 928 0 0 0 255 255 255 255 200
432.088 171.57 1456 0 0 0 255 255 255 255 200
148.794 -693.104 926 0 0 0 255 255 255 255 200
389.378 -605.876 1037 0 0 0 255 255 255 255 200
406.121 -602.521 1059 0 0 0 255 255 255 255 200
404.432 205.456 1444 0 0 0 255 255 255 255 200
566.45 -47.4688 1375 0 0 0 255 255 255 255 200
519.962 46.1089 1438 0 0 0 255 255 255 255 200
-664.708 -319.835 1390 0 0 0 255 255 255 255 200
577.291 -81.0965 1354 0 0 0 255 255 255 255 200
125.988 -719.784 948 0 0 0 255 255 255 255 200
162.181 -690.506 929 0 0 0 255 255 255 255 200
-661.509 -339.296 1395 0 0 0 255 255 255 255 200
573.191 -64.1994 1360 0 0 0 255 255 255 255 200
396.145 -604.265 1043 0 0 0 255 255 255 255 200
576.772 -75.3365 1353 0 0 0 255 255 255 255 200
460.34 141.244 1447 0 0 0 255 255 255 255 200
427.084 177.94 1460 0 0 0 255 255 255 255 200
518.927 51.9536 1435 0 0 0 255 255 255 255 200
140.326 -698.353 926 0 0 0 255 255 255 255 200
446.932 -592.628 1122 0 0 0 255 255 255 255 200
129.379 -714.002 940 0 0 0 255 255 255 255 200
173.584 -679.861 921 0 0 0 255 255 255 255 200
504.674 86.1534 1412 0 0 0 255 255 255 255 200
153.197 -693.446 926 0 0 0 255 255 255 255 200
465.932 135.194 1445 0 0 0 255 255 255 255 200
488.859 109.899 1420 0 0 0 255 255 255 255 200
433.576 -596.375 1097 0 0 0 255 255 255 255 200
493.698 103.823 1416 0 0 0 255 255 255 255 200
476.458 122.958 1439 0 0 0 255 255 255 255 200
166.608 -690.876 929 0 0 0 255 255 255 255 200
424.418 -600.356 1084 0 0 0 255 255 255 255 200
-665.628 -326.292 1391 0 0 0 255 255 255 255 200
484.346 116.083 1425 0 0 0 255 255 255 255 200
471.525 129.156 1443 0 0 0 255 255 255 255 200
414.593 -603.032 1069 0 0 0 255 255 255 255 200
581.763 -93.197 1364 0 0 0 255 255 255 255 200
361.296 -626.501 1019 0 0 0 255 255 255 255 200
517.898 57.7754 1432 0 0 0 255 255 255 255 200
355.858 -629.805 1016 0 0 0 255 255 255 255 200
367.122 -623.801 1023 0 0 0 255 255 255 255 200
350.102 -632.48 1012 0 0 0 255 255 255 255 200
108.994 -760.479 995 0 0 0 255 255 255 255 200
372.623 -620.481 1026 0 0 0 255 255 255 255 200
498.876 97.8423 1413 0 0 0 255 255 255 255 200
-662.448 -345.819 1396 0 0 0 255 255 255 255 200
377.786 -616.556 1028 0 0 0 255 255 255 255 200
516.151 63.4853 1427 0 0 0 255 255 255 255 200
344.384 -635.141 1008 0 0 0 255 255 255 255 200
132.984 -709.746 934 0 0 0 255 255 255 255 200
404.506 -604.915 1053 0 0 0 255 255 255 255 200
144.57 -697.924 925 0 0 0 255 255 255 255 200
382.971 -612.634 1030 0 0 0 255 255 255 255 200
400.027 212.169 1450 0 0 0 255 255 255 255 200
338.365 -637.151 1003 0 0 0 255 255 255 255 200
331.391 -637.216 995 0 0 0 255 255 255 255 200
444.441 -594.351 1114 0 0 0 255 255 255 255 200
157.607 -693.799 926 0 0 0 255 255 255 255 200
448.672 159.166 1449 0 0 0 255 255 255 255 200
388.554 -609.307 1033 0 0 0 255 255 255 255 200
113.464 -759.208 993 0 0 0 255 255 255 255 200
443.398 165.368 1452 0 0 0 255 255 255 255 200
480.48 122.473 1432 0 0 0 255 255 255 255 200
171.043 -691.256 929 0 0 0 255 255 255 255 200
175.666 -671.39 909 0 0 0 255 255 255 255 200
454.565 153.196 1448 0 0 0 255 255 255 255 200
-669.226 -319.122 1385 0 0 0 255 255 255 255 200
394.929 -607.143 1038 0 0 0 255 255 255 255 200
565.659 -36.2768 1389 0 0 0 255 255 255 255 200
515.132 69.2532 1424 0 0 0 255 255 255 255 200
-666.558 -332.771 1392 0 0 0 255 255 255 255 200
572.513 -53.2521 1374 0 0 0 255 255 255 255 200
136.98 -707.778 931 0 0 0 255 255 255 255 200
148.811 -697.505 924 0 0 0 255 255 255 255 200
432.298 -599.561 1092 0 0 0 255 255 255 255 200
117.683 -756.418 989 0 0 0 255 255 255 255 200
488.623 115.704 1419 0 0 0 255 255 255 255 200
504.763 92.01 1412 0 0 0 255 255 255 255 200
393.19 214.921 1471 0 0 0 255 255 255 255 200
460.466 147.231 1447 0 0 0 255 255 255 255 200
162.198 -694.911 927 0 0 0 255 255 255 255 200
423.158 -603.468 1079 0 0 0 255 255 255 255 200
455.447 -592.069 1131 0 0 0 255 255 255 255 200
412.96 -605.49 1063 0 0 0 255 255 255 255 200
513.758 74.9459 1420 0 0 0 255 255 255 255 200
442.348 -596.554 1107 0 0 0 255 255 255 255 200
585.29 -99.5329 1372 0 0 0 255 255 255 255 200
121.621 -752.106 983 0 0 0 255 255 255 255 200
569.283 -41.9219 1382 0 0 0 255 255 255 255 200
493.801 109.694 1416 0 0 0 255 255 255 255 200
563.609 -30.6755 1400 0 0 0 255 255 255 255 200
438.718 171.829 1457 0 0 0 255 255 255 255 200
413.349 201.004 1454 0 0 0 255 255 255 255 200
124.994 -744.74 973 0 0 0 255 255 255 255 200
405.153 211.745 1446 0 0 0 255 255 255 255 200
526.077 46.1238 1437 0 0 0 255 255 255 255 200
476.573 128.915 1439 0 0 0 255 255 255 255 200
484.458 121.988 1425 0 0 0 255 255 255 255 200
175.296 -690.902 928 0 0 0 255 255 255 255 200
-667.019 -339.029 1392 0 0 0 255 255 255 255 200
127.878 -735.082 960 0 0 0 255 255 255 255 200
402.892 -607.272 1047 0 0 0 255 255 255 255 200
466.377 141.271 1446 0 0 0 255 255 255 255 200
140.953 -705.817 928 0 0 0 255 255 255 255 200
498.974 103.704 1413 0 0 0 255 255 255 255 200
512.389 80.608 1416 0 0 0 255 255 255 255 200
524.663 51.934 1433 0 0 0 255 255 255 255 200
153.215 -697.851 924 0 0 0 255 255 255 255 200
366.356 -627.169 1019 0 0 0 255 255 255 255 200
360.897 -630.469 1016 0 0 0 255 255 255 255 200
355.117 -633.139 1012 0 0 0 255 255 255 255 200
416.036 196.316 1464 0 0 0 255 255 255 255 200
471.971 135.221 1444 0 0 0 255 255 255 255 200
424.081 185.222 1471 0 0 0 255 255 255 255 200
372.207 -624.474 1023 0 0 0 255 255 255 255 200
349.72 -636.426 1009 0 0 0 255 255 255 255 200
382.536 -616.636 1027 0 0 0 255 255 255 255 200
343.667 -638.436 1004 0 0 0 255 255 255 255 200
377.729 -621.158 1026 0 0 0 255 255 255 255 200
166.626 -695.285 927 0 0 0 255 255 255 255 200
330.028 -639.151 989 0 0 0 255 255 255 255 200
131.058 -727.724 950 0 0 0 255 255 255 255 200
387.733 -612.723 1029 0 0 0 255 255 255 255 200
-670.638 -325.802 1387 0 0 0 255 255 255 255 200
411.802 206.185 1448 0 0 0 255 255 255 255 200
337.659 -640.421 999 0 0 0 255 255 255 255 200
430.626 -602.166 1086 0 0 0 255 255 255 255 200
453.734 -594.916 1125 0 0 0 255 255 255 255 200
511.025 86.2398 1412 0 0 0 255 255 255 255 200
480.597 128.406 1432 0 0 0 255 255 255 255 200
504.5 97.8004 1411 0 0 0 255 255 255 255 200
393.715 -609.994 1033 0 0 0 255 255 255 255 200
145.216 -705.387 927 0 0 0 255 255 255 255 200
440.656 -599.254 1101 0 0 0 255 255 255 255 200
179.353 -689.812 926 0 0 0 255 255 255 255 200
588.399 -105.863 1379 0 0 0 255 255 255 255 200
421.507 -605.99 1073 0 0 0 255 255 255 255 200
157.625 -698.207 924 0 0 0 255 255 255 255 200
134.434 -721.904 942 0 0 0 255 255 255 255 200
523.987 57.7938 1431 0 0 0 255 255 255 255 200
411.328 -607.911 1057 0 0 0 255 255 255 255 200
-671.094 -332.033 1387 0 0 0 255 255 255 255 200
434.605 178.572 1464 0 0 0 255 255 255 255 200
574.538 -47.6615 1379 0 0 0 255 255 255 255 200
171.246 -696.419 928 0 0 0 255 255 255 255 200
455.014 159.303 1449 0 0 0 255 255 255 255 200
489.081 121.676 1420 0 0 0 255 255 255 255 200
493.91 115.57 1416 0 0 0 255 255 255 255 200
522.584 63.5499 1427 0 0 0 255 255 255 255 200
401.278 -609.592 1041 0 0 0 255 255 255 255 200
449.739 165.509 1452 0 0 0 255 255 255 255 200
451.62 -597.193 1118 0 0 0 255 255 255 255 200
579.019 -59.0861 1374 0 0 0 255 255 255 255 200
149.477 -704.966 926 0 0 0 255 255 255 255 200
476.694 134.876 1439 0 0 0 255 255 255 255 200
138.182 -718.388 937 0 0 0 255 255 255 255 200
460.917 153.33 1448 0 0 0 255 255 255 255 200
499.079 109.569 1413 0 0 0 255 255 255 255 200
162.218 -699.33 925 0 0 0 255 255 255 255 200
183.002 -687.241 922 0 0 0 255 255 255 255 200
466.506 147.26 1446 0 0 0 255 255 255 255 200
411.112 211.763 1445 0 0 0 255 255 255 255 200
484.916 127.988 1426 0 0 0 255 255 255 255 200
-671.558 -338.277 1387 0 0 0 255 255 255 255 200
510.753 92.037 1411 0 0 0 255 255 255 255 200
360.147 -633.809 1012 0 0 0 255 255 255 255 200
438.965 -601.918 1095 0 0 0 255 255 255 255 200
365.952 -631.144 1016 0 0 0 255 255 255 255 200
583.506 -70.4627 1369 0 0 0 255 255 255 255 200
354.73 -637.091 1009 0 0 0 255 255 255 255 200
376.94 -624.546 1022 0 0 0 255 255 255 255 200
371.796 -628.464 1020 0 0 0 255 255 255 255 200
429.75 -605.855 1082 0 0 0 255 255 255 255 200
327.996 -639.744 981 0 0 0 255 255 255 255 200
382.106 -620.633 1024 0 0 0 255 255 255 255 200
175.504 -696.063 927 0 0 0 255 255 255 255 200
348.995 -639.732 1005 0 0 0 255 255 255 255 200
387.293 -616.725 1026 0 0 0 255 255 255 255 200
531.831 46.1072 1435 0 0 0 255 255 255 255 200
343.296 -642.358 1001 0 0 0 255 255 255 255 200
336.618 -643.03 994 0 0 0 255 255 255 255 200
420.25 -609.045 1068 0 0 0 255 255 255 255 200
504.6 103.659 1411 0 0 0 255 255 255 255 200
472.423 141.3 1445 0 0 0 255 255 255 255 200
142.041 -715.648 933 0 0 0 255 255 255 255 200
392.885 -613.416 1029 0 0 0 255 255 255 255 200
153.734 -704.555 925 0 0 0 255 255 255 255 200
-675.148 -325.08 1382 0 0 0 255 255 255 255 200
409.696 -610.295 1051 0 0 0 255 255 255 255 200
462.317 -594.35 1134 0 0 0 255 255 255 255 200
445.373 172.091 1458 0 0 0 255 255 255 255 200
449.505 -599.422 1111 0 0 0 255 255 255 255 200
522.286 69.421 1426 0 0 0 255 255 255 255 200
166.647 -699.707 925 0 0 0 255 255 255 255 200
122.526 -762.334 988 0 0 0 255 255 255 255 200
481.055 134.437 1433 0 0 0 255 255 255 255 200
186.824 -685.422 919 0 0 0 255 255 255 255 200
570.101 -30.7096 1400 0 0 0 255 255 255 255 200
500.213 121.833 1283 0 0 0 255 255 255 255 200
399.665 -611.875 1035 0 0 0 255 255 255 255 200
494.025 121.45 1416 0 0 0 255 255 255 255 200
179.955 -696.468 927 0 0 0 255 255 255 255 200
589.825 -87.8061 1368 0 0 0 255 255 255 255 200
489.2 127.57 1420 0 0 0 255 255 255 255 200
531.141 51.9877 1433 0 0 0 255 255 255 255 200
126.574 -758.768 983 0 0 0 255 255 255 255 200
-675.608 -331.298 1382 0 0 0 255 255 255 255 200
146.182 -714.449 931 0 0 0 255 255 255 255 200
129.913 -751.349 973 0 0 0 255 255 255 255 200
157.989 -704.154 924 0 0 0 255 255 255 255 200
521.261 75.1806 1423 0 0 0 255 255 255 255 200
510.487 97.829 1410 0 0 0 255 255 255 255 200
437.677 -605.1 1090 0 0 0 255 255 255 255 200
133.163 -743.934 963 0 0 0 255 255 255 255 200
428.081 -608.398 1076 0 0 0 255 255 255 255 200
519.509 80.8039 1418 0 0 0 255 255 255 255 200
171.268 -700.852 926 0 0 0 255 255 255 255 200
460.587 -597.218 1128 0 0 0 255 255 255 255 200
574.181 -36.4485 1394 0 0 0 255 255 255 255 200
407 218.66 1452 0 0 0 255 255 255 255 200
576.987 -42.061 1385 0 0 0 255 255 255 255 200
447.39 -601.604 1104 0 0 0 255 255 255 255 200
499.543 115.519 1414 0 0 0 255 255 255 255 200
485.039 133.906 1426 0 0 0 255 255 255 255 200
530.086 57.813 1430 0 0 0 255 255 255 255 200
418.602 -611.499 1062 0 0 0 255 255 255 255 200
477.152 140.939 1440 0 0 0 255 255 255 255 200
136.18 -735.752 952 0 0 0 255 255 255 255 200
461.372 159.442 1449 0 0 0 255 255 255 255 200
408.066 -612.642 1045 0 0 0 255 255 255 255 200
359.756 -637.767 1009 0 0 0 255 255 255 255 200
365.554 -635.116 1013 0 0 0 255 255 255 255 200
441.272 178.841 1465 0 0 0 255 255 255 255 200
353.996 -640.403 1005 0 0 0 255 255 255 255 200
150.472 -714.028 930 0 0 0 255 255 255 255 200
504.706 109.522 1411 0 0 0 255 255 255 255 200
371.389 -632.451 1017 0 0 0 255 255 255 255 200
307.885 -617.551 931 0 0 0 255 255 255 255 200
518.128 86.4496 1414 0 0 0 255 255 255 255 200
466.962 153.359 1447 0 0 0 255 255 255 255 200
386.858 -620.723 1023 0 0 0 255 255 255 255 200
184.214 -696.132 926 0 0 0 255 255 255 255 200
376.893 -629.154 1020 0 0 0 255 255 255 255 200
348.273 -643.024 1001 0 0 0 255 255 255 255 200
382.054 -625.24 1022 0 0 0 255 255 255 255 200
162.416 -704.525 924 0 0 0 255 255 255 255 200
335.24 -644.96 988 0 0 0 255 255 255 255 200
581.903 -53.5856 1381 0 0 0 255 255 255 255 200
392.057 -616.823 1025 0 0 0 255 255 255 255 200
342.243 -644.983 996 0 0 0 255 255 255 255 200
328.307 -644.882 980 0 0 0 255 255 255 255 200
472.554 147.29 1445 0 0 0 255 255 255 255 200
139.689 -730.665 945 0 0 0 255 255 255 255 200
456.411 165.765 1453 0 0 0 255 255 255 255 200
186.671 -669.431 897 0 0 0 255 255 255 255 200
404.054 220.299 1464 0 0 0 255 255 255 255 200
175.717 -701.251 926 0 0 0 255 255 255 255 200
591.016 -82.2129 1371 0 0 0 255 255 255 255 200
458.449 -599.516 1121 0 0 0 255 255 255 255 200
481.182 140.384 1433 0 0 0 255 255 255 255 200
529.408 63.6599 1428 0 0 0 255 255 255 255 200
398.827 -615.314 1031 0 0 0 255 255 255 255 200
593.815 -94.1979 1377 0 0 0 255 255 255 255 200
154.592 -712.848 928 0 0 0 255 255 255 255 200
445.681 -604.289 1098 0 0 0 255 255 255 255 200
426.812 -611.476 1071 0 0 0 255 255 255 255 200
510.589 103.69 1410 0 0 0 255 255 255 255 200
143.29 -726.358 939 0 0 0 255 255 255 255 200
436.793 -608.817 1086 0 0 0 255 255 255 255 200
166.851 -704.907 924 0 0 0 255 255 255 255 200
188.676 -696.558 926 0 0 0 255 255 255 255 200
