ply
format ascii 1.0
element vertex 992
property float x
property float y
property float z
property float nx
property float ny
property float nz
property uchar diffuse_red
property uchar diffuse_green
property uchar diffuse_blue
property uchar diffuse_alpha
property float quality
element face 0
property list uchar int vertex_indices
end_header
244.387 -159.099 1400 0 0 0 255 255 255 255 200
-264.918 108.837 1445 0 0 0 255 255 255 255 200
251.532 68.0993 1446 0 0 0 255 255 255 255 200
-267.486 107.535 1427 0 0 0 255 255 255 255 200
-276.405 -157.312 1380 0 0 0 255 255 255 255 200
251.709 -143.164 1410 0 0 0 255 255 255 255 200
268.624 -73.5483 1381 0 0 0 255 255 255 255 200
184.59 -239.089 1372 0 0 0 255 255 255 255 200
200.815 150.346 1458 0 0 0 255 255 255 255 200
195.19 -227.497 1369 0 0 0 255 255 255 255 200
217.631 -200.266 1372 0 0 0 255 255 255 255 200
235.631 -173.691 1381 0 0 0 255 255 255 255 200
-300.135 10.1659 1445 0 0 0 255 255 255 255 200
267.251 -91.6325 1403 0 0 0 255 255 255 255 200
-269.147 105.931 1405 0 0 0 255 255 255 255 200
-271.249 91.5263 1358 0 0 0 255 255 255 255 200
263.306 -109.252 1412 0 0 0 255 255 255 255 200
179.211 -244.824 1373 0 0 0 255 255 255 255 200
-249.084 -206.928 1415 0 0 0 255 255 255 255 200
272.869 -23.968 1404 0 0 0 255 255 255 255 200
-295.73 -110.247 1421 0 0 0 255 255 255 255 200
245.217 85.3081 1443 0 0 0 255 255 255 255 200
200.55 -221.808 1368 0 0 0 255 255 255 255 200
206.535 144.423 1457 0 0 0 255 255 255 255 200
-245.13 133.935 1467 0 0 0 255 255 255 255 200
-289.086 -132.735 1416 0 0 0 255 255 255 255 200
228.875 114.738 1450 0 0 0 255 255 255 255 200
229.793 -184.584 1379 0 0 0 255 255 255 255 200
239.736 96.9999 1445 0 0 0 255 255 255 255 200
-302.214 -13.1735 1455 0 0 0 255 255 255 255 200
253.241 62.7262 1456 0 0 0 255 255 255 255 200
-231.692 -229.502 1413 0 0 0 255 255 255 255 200
-254.458 -200.954 1413 0 0 0 255 255 255 255 200
-266.293 -180.282 1385 0 0 0 255 255 255 255 200
-250.731 127.901 1465 0 0 0 255 255 255 255 200
212.253 138.509 1456 0 0 0 255 255 255 255 200
206.357 -216.607 1370 0 0 0 255 255 255 255 200
-192.727 187.511 1473 0 0 0 255 255 255 255 200
178.145 174.382 1464 0 0 0 255 255 255 255 200
-263.106 -187.587 1398 0 0 0 255 255 255 255 200
-279.329 46.4273 1318 0 0 0 255 255 255 255 200
257.554 -131.913 1411 0 0 0 255 255 255 255 200
243.415 -164.075 1394 0 0 0 255 255 255 255 200
-259.269 -194.584 1408 0 0 0 255 255 255 255 200
-237.399 -223.804 1413 0 0 0 255 255 255 255 200
-288.343 -138.088 1412 0 0 0 255 255 255 255 200
251.392 73.8543 1445 0 0 0 255 255 255 255 200
-261.191 115.562 1457 0 0 0 255 255 255 255 200
263.362 -114.951 1412 0 0 0 255 255 255 255 200
251.422 -148.663 1408 0 0 0 255 255 255 255 200
223.818 -195.318 1376 0 0 0 255 255 255 255 200
217.82 132.514 1454 0 0 0 255 255 255 255 200
-275.489 -162.34 1375 0 0 0 255 255 255 255 200
-293.827 36.9708 1360 0 0 0 255 255 255 255 200
-286.582 -142.903 1403 0 0 0 255 255 255 255 200
-295.793 -115.999 1421 0 0 0 255 255 255 255 200
-270.637 104.326 1383 0 0 0 255 255 255 255 200
-284.21 -147.333 1391 0 0 0 255 255 255 255 200
-302.466 -87.6315 1426 0 0 0 255 255 255 255 200
234.415 108.802 1448 0 0 0 255 255 255 255 200
212.031 -211.241 1371 0 0 0 255 255 255 255 200
-303.266 -82.1022 1430 0 0 0 255 255 255 255 200
-186.819 193.417 1473 0 0 0 255 255 255 255 200
-243.112 -218.11 1413 0 0 0 255 255 255 255 200
-270.559 -173.84 1378 0 0 0 255 255 255 255 200
-256.498 121.965 1464 0 0 0 255 255 255 255 200
268.442 -97.7045 1409 0 0 0 255 255 255 255 200
-227.72 157.665 1469 0 0 0 255 255 255 255 200
271.387 -79.9122 1395 0 0 0 255 255 255 255 200
-216.029 169.533 1470 0 0 0 255 255 255 255 200
-221.949 163.651 1470 0 0 0 255 255 255 255 200
223.377 126.536 1452 0 0 0 255 255 255 255 200
-271.5 97.0805 1359 0 0 0 255 255 255 255 200
-302.093 -93.2623 1424 0 0 0 255 255 255 255 200
235.541 -179.18 1380 0 0 0 255 255 255 255 200
271.835 -56.4111 1369 0 0 0 255 255 255 255 200
-282.248 -151.89 1381 0 0 0 255 255 255 255 200
242.096 -168.764 1386 0 0 0 255 255 255 255 200
-233.648 151.791 1469 0 0 0 255 255 255 255 200
-210.257 175.537 1471 0 0 0 255 255 255 255 200
250.906 79.4935 1442 0 0 0 255 255 255 255 200
-248.655 -212.27 1412 0 0 0 255 255 255 255 200
172.753 180.737 1468 0 0 0 255 255 255 255 200
245.427 91.1704 1444 0 0 0 255 255 255 255 200
-265.157 114.745 1446 0 0 0 255 255 255 255 200
217.4 -205.572 1370 0 0 0 255 255 255 255 200
257.437 -137.524 1410 0 0 0 255 255 255 255 200
-269.395 111.683 1406 0 0 0 255 255 255 255 200
-304.706 -76.7034 1437 0 0 0 255 255 255 255 200
-267.916 113.452 1429 0 0 0 255 255 255 255 200
-239.42 145.82 1468 0 0 0 255 255 255 255 200
263.421 -120.654 1412 0 0 0 255 255 255 255 200
-301.723 -98.88 1422 0 0 0 255 255 255 255 200
250.958 -154.042 1405 0 0 0 255 255 255 255 200
272.661 -62.102 1373 0 0 0 255 255 255 255 200
-302.129 27.2582 1426 0 0 0 255 255 255 255 200
229.71 -190.066 1378 0 0 0 255 255 255 255 200
-295.86 -121.754 1421 0 0 0 255 255 255 255 200
195.148 162.169 1459 0 0 0 255 255 255 255 200
195.135 -232.946 1368 0 0 0 255 255 255 255 200
189.913 -238.828 1370 0 0 0 255 255 255 255 200
239.946 102.882 1446 0 0 0 255 255 255 255 200
-266.003 -185.669 1383 0 0 0 255 255 255 255 200
200.871 156.229 1458 0 0 0 255 255 255 255 200
-254.016 -206.296 1410 0 0 0 255 255 255 255 200
-204.483 181.551 1472 0 0 0 255 255 255 255 200
189.423 168.12 1460 0 0 0 255 255 255 255 200
229.082 120.657 1451 0 0 0 255 255 255 255 200
-262.826 -193.022 1396 0 0 0 255 255 255 255 200
-258.814 -199.914 1405 0 0 0 255 255 255 255 200
-275.177 -167.7 1373 0 0 0 255 255 255 255 200
200.931 -227.751 1370 0 0 0 255 255 255 255 200
-176.139 200.617 1483 0 0 0 255 255 255 255 200
269.065 -103.608 1412 0 0 0 255 255 255 255 200
-245.359 139.953 1468 0 0 0 255 255 255 255 200
-285.639 41.2658 1322 0 0 0 255 255 255 255 200
206.733 150.402 1458 0 0 0 255 255 255 255 200
-281.107 -156.827 1375 0 0 0 255 255 255 255 200
-301.569 -104.558 1421 0 0 0 255 255 255 255 200
223.254 -200.352 1372 0 0 0 255 255 255 255 200
-306.148 -71.2505 1444 0 0 0 255 255 255 255 200
206.296 -222.059 1369 0 0 0 255 255 255 255 200
257.096 68.0374 1444 0 0 0 255 255 255 255 200
-306.753 -7.28946 1448 0 0 0 255 255 255 255 200
273.182 -86.0849 1404 0 0 0 255 255 255 255 200
-250.962 133.905 1466 0 0 0 255 255 255 255 200
274.483 -68.0736 1382 0 0 0 255 255 255 255 200
-198.706 187.577 1473 0 0 0 255 255 255 255 200
183.945 174.321 1463 0 0 0 255 255 255 255 200
-295.512 -127.334 1419 0 0 0 255 255 255 255 200
-237.165 -229.279 1411 0 0 0 255 255 255 255 200
212.455 144.478 1457 0 0 0 255 255 255 255 200
-306.539 -1.46103 1447 0 0 0 255 255 255 255 200
-270.456 -179.334 1377 0 0 0 255 255 255 255 200
-271.28 110.152 1386 0 0 0 255 255 255 255 200
263.482 -126.361 1412 0 0 0 255 255 255 255 200
-261.427 121.523 1458 0 0 0 255 255 255 255 200
-271.554 102.57 1359 0 0 0 255 255 255 255 200
250.318 -159.287 1401 0 0 0 255 255 255 255 200
241.652 -174.023 1383 0 0 0 255 255 255 255 200
257.506 -143.233 1410 0 0 0 255 255 255 255 200
-242.698 -223.431 1410 0 0 0 255 255 255 255 200
211.656 -216.38 1368 0 0 0 255 255 255 255 200
250.944 85.2884 1442 0 0 0 255 255 255 255 200
-306.329 4.35941 1446 0 0 0 255 255 255 255 200
235.453 -184.667 1379 0 0 0 255 255 255 255 200
-256.557 127.873 1464 0 0 0 255 255 255 255 200
-294.544 -132.62 1414 0 0 0 255 255 255 255 200
234.787 114.787 1450 0 0 0 255 255 255 255 200
-307.606 -13.1534 1452 0 0 0 255 255 255 255 200
-301.417 -110.232 1420 0 0 0 255 255 255 255 200
-304.657 21.6986 1438 0 0 0 255 255 255 255 200
258.845 62.6698 1454 0 0 0 255 255 255 255 200
218.174 138.564 1456 0 0 0 255 255 255 255 200
269.31 -109.384 1413 0 0 0 255 255 255 255 200
245.64 97.0436 1445 0 0 0 255 255 255 255 200
-248.228 -217.594 1409 0 0 0 255 255 255 255 200
-291.155 -142.371 1397 0 0 0 255 255 255 255 200
-192.925 193.615 1474 0 0 0 255 255 255 255 200
-305.705 15.9657 1443 0 0 0 255 255 255 255 200
-306.333 10.179 1446 0 0 0 255 255 255 255 200
-293.369 -137.773 1408 0 0 0 255 255 255 255 200
-269.646 117.448 1407 0 0 0 255 255 255 255 200
-267.975 119.223 1429 0 0 0 255 255 255 255 200
-253.396 -211.469 1406 0 0 0 255 255 255 255 200
217.33 -211.022 1369 0 0 0 255 255 255 255 200
229.463 -195.404 1376 0 0 0 255 255 255 255 200
-262.172 -198.163 1392 0 0 0 255 255 255 255 200
-280.376 -161.956 1371 0 0 0 255 255 255 255 200
-265.398 120.665 1447 0 0 0 255 255 255 255 200
-288.943 -146.885 1386 0 0 0 255 255 255 255 200
-265.715 -191.046 1381 0 0 0 255 255 255 255 200
223.738 132.568 1454 0 0 0 255 255 255 255 200
256.952 73.787 1443 0 0 0 255 255 255 255 200
-222.016 169.601 1470 0 0 0 255 255 255 255 200
-258.177 -205.079 1401 0 0 0 255 255 255 255 200
249.324 -164.27 1395 0 0 0 255 255 255 255 200
-181.898 200.411 1481 0 0 0 255 255 255 255 200
-227.942 163.719 1470 0 0 0 255 255 255 255 200
-275.269 -173.301 1373 0 0 0 255 255 255 255 200
-233.714 157.731 1469 0 0 0 255 255 255 255 200
263.36 -131.978 1411 0 0 0 255 255 255 255 200
-308.674 -19.063 1457 0 0 0 255 255 255 255 200
-216.244 175.605 1471 0 0 0 255 255 255 255 200
274.395 -92.137 1410 0 0 0 255 255 255 255 200
-307.743 -87.4972 1423 0 0 0 255 255 255 255 200
257.212 -148.735 1408 0 0 0 255 255 255 255 200
-308.559 -81.9768 1427 0 0 0 255 255 255 255 200
240.325 108.85 1448 0 0 0 255 255 255 255 200
277.102 -74.3328 1395 0 0 0 255 255 255 255 200
178.812 180.918 1469 0 0 0 255 255 255 255 200
-239.649 151.857 1469 0 0 0 255 255 255 255 200
229.293 126.589 1452 0 0 0 255 255 255 255 200
269.367 -115.09 1413 0 0 0 255 255 255 255 200
-287.15 -151.534 1377 0 0 0 255 255 255 255 200
-301.694 -116.064 1421 0 0 0 255 255 255 255 200
195.225 -238.57 1368 0 0 0 255 255 255 255 200
-309.594 -76.4802 1432 0 0 0 255 255 255 255 200
223.017 -205.66 1370 0 0 0 255 255 255 255 200
-270.159 -184.691 1375 0 0 0 255 255 255 255 200
241.385 -179.393 1381 0 0 0 255 255 255 255 200
250.985 91.0862 1442 0 0 0 255 255 255 255 200
256.454 79.4208 1440 0 0 0 255 255 255 255 200
190.28 -244.822 1372 0 0 0 255 255 255 255 200
-307.579 -93.1847 1422 0 0 0 255 255 255 255 200
-272.21 108.302 1362 0 0 0 255 255 255 255 200
-245.423 145.885 1468 0 0 0 255 255 255 255 200
201.022 -233.377 1370 0 0 0 255 255 255 255 200
-271.535 115.839 1387 0 0 0 255 255 255 255 200
201.068 162.228 1459 0 0 0 255 255 255 255 200
-241.942 -228.409 1405 0 0 0 255 255 255 255 200
195.341 168.18 1460 0 0 0 255 255 255 255 200
247.973 -168.966 1387 0 0 0 255 255 255 255 200
-210.612 181.743 1473 0 0 0 255 255 255 255 200
-236.766 -234.58 1408 0 0 0 255 255 255 255 200
206.791 156.287 1458 0 0 0 255 255 255 255 200
-247.275 -222.425 1403 0 0 0 255 255 255 255 200
235.368 -190.152 1378 0 0 0 255 255 255 255 200
-261.487 127.409 1458 0 0 0 255 255 255 255 200
206.537 -227.842 1370 0 0 0 255 255 255 255 200
-260.766 -202.692 1384 0 0 0 255 255 255 255 200
-256.806 -209.616 1393 0 0 0 255 255 255 255 200
-187.393 199.936 1477 0 0 0 255 255 255 255 200
-306.336 32.8338 1418 0 0 0 255 255 255 255 200
263.241 -137.592 1410 0 0 0 255 255 255 255 200
274.834 -97.9628 1412 0 0 0 255 255 255 255 200
-252.418 -216.308 1400 0 0 0 255 255 255 255 200
-251.196 139.922 1467 0 0 0 255 255 255 255 200
256.738 -154.117 1405 0 0 0 255 255 255 255 200
211.592 -221.825 1367 0 0 0 255 255 255 255 200
-307.418 -98.8671 1421 0 0 0 255 255 255 255 200
269.237 -120.715 1412 0 0 0 255 255 255 255 200
245.855 102.928 1446 0 0 0 255 255 255 255 200
-301.549 -121.737 1420 0 0 0 255 255 255 255 200
-280.466 -167.547 1371 0 0 0 255 255 255 255 200
189.871 174.38 1463 0 0 0 255 255 255 255 200
-204.83 187.773 1474 0 0 0 255 255 255 255 200
-265.045 -196.128 1377 0 0 0 255 255 255 255 200
228.717 -200.295 1371 0 0 0 255 255 255 255 200
235.162 120.792 1452 0 0 0 255 255 255 255 200
-256.794 133.876 1465 0 0 0 255 255 255 255 200
212.804 150.563 1459 0 0 0 255 255 255 255 200
-286.402 -156.685 1373 0 0 0 255 255 255 255 200
-275.363 -178.908 1373 0 0 0 255 255 255 255 200
-311.497 -71.1431 1441 0 0 0 255 255 255 255 200
278.931 -80.47 1404 0 0 0 255 255 255 255 200
217.262 -216.471 1368 0 0 0 255 255 255 255 200
-270.283 123.399 1410 0 0 0 255 255 255 255 200
-268.411 125.173 1431 0 0 0 255 255 255 255 200
262.834 68.0233 1443 0 0 0 255 255 255 255 200
-265.642 126.597 1448 0 0 0 255 255 255 255 200
218.531 144.635 1458 0 0 0 255 255 255 255 200
-312.33 -7.28333 1446 0 0 0 255 255 255 255 200
-250.36 -220.153 1388 0 0 0 255 255 255 255 200
247.162 -173.98 1382 0 0 0 255 255 255 255 200
256.494 85.2105 1440 0 0 0 255 255 255 255 200
275.081 -103.735 1413 0 0 0 255 255 255 255 200
-254.882 -213.631 1382 0 0 0 255 255 255 255 200
-307.477 -104.618 1421 0 0 0 255 255 255 255 200
-199.044 193.816 1475 0 0 0 255 255 255 255 200
-301.195 -127.316 1418 0 0 0 255 255 255 255 200
-269.865 -190.039 1373 0 0 0 255 255 255 255 200
256.083 -159.365 1401 0 0 0 255 255 255 255 200
-258.985 -206.861 1374 0 0 0 255 255 255 255 200
263.124 -143.202 1409 0 0 0 255 255 255 255 200
241.296 -184.887 1380 0 0 0 255 255 255 255 200
-245.971 -226.889 1395 0 0 0 255 255 255 255 200
-312.984 -13.1335 1449 0 0 0 255 255 255 255 200
224.102 138.621 1456 0 0 0 255 255 255 255 200
-312.328 -1.46053 1446 0 0 0 255 255 255 255 200
251.204 96.9541 1443 0 0 0 255 255 255 255 200
240.707 114.838 1450 0 0 0 255 255 255 255 200
269.3 -126.425 1412 0 0 0 255 255 255 255 200
-272.47 113.895 1363 0 0 0 255 255 255 255 200
-228.011 169.67 1470 0 0 0 255 255 255 255 200
-300.207 -132.601 1413 0 0 0 255 255 255 255 200
184.633 180.855 1468 0 0 0 255 255 255 255 200
-312.113 4.35922 1445 0 0 0 255 255 255 255 200
223.108 -211.267 1370 0 0 0 255 255 255 255 200
-296.326 -142.146 1394 0 0 0 255 255 255 255 200
264.623 62.6571 1453 0 0 0 255 255 255 255 200
-241.36 -233.52 1401 0 0 0 255 255 255 255 200
-271.794 121.537 1388 0 0 0 255 255 255 255 200
-298.584 -137.557 1405 0 0 0 255 255 255 255 200
-233.942 163.788 1470 0 0 0 255 255 255 255 200
-222.237 175.675 1471 0 0 0 255 255 255 255 200
235.115 -195.493 1376 0 0 0 255 255 255 255 200
-313.641 -19.0083 1452 0 0 0 255 255 255 255 200
-239.716 157.799 1469 0 0 0 255 255 255 255 200
229.663 132.624 1454 0 0 0 255 255 255 255 200
-294.069 -146.65 1383 0 0 0 255 255 255 255 200
-307.322 -110.295 1420 0 0 0 255 255 255 255 200
-263.8 -200.745 1370 0 0 0 255 255 255 255 200
-285.865 -161.928 1370 0 0 0 255 255 255 255 200
-236.368 -239.863 1405 0 0 0 255 255 255 255 200
-280.56 -173.143 1371 0 0 0 255 255 255 255 200
-245.489 151.821 1468 0 0 0 255 255 255 255 200
280.168 -86.4982 1410 0 0 0 255 255 255 255 200
195.746 -244.736 1371 0 0 0 255 255 255 255 200
-309.991 27.4463 1435 0 0 0 255 255 255 255 200
275.331 -109.518 1414 0 0 0 255 255 255 255 200
201.115 -239.011 1370 0 0 0 255 255 255 255 200
255.066 -164.35 1395 0 0 0 255 255 255 255 200
283.198 -63.2214 1397 0 0 0 255 255 255 255 200
201.129 168.126 1459 0 0 0 255 255 255 255 200
262.868 73.8229 1443 0 0 0 255 255 255 255 200
-248.302 -223.906 1376 0 0 0 255 255 255 255 200
-261.729 133.391 1459 0 0 0 255 255 255 255 200
206.852 162.178 1458 0 0 0 255 255 255 255 200
-314.451 -76.2576 1427 0 0 0 255 255 255 255 200
-312.334 10.1851 1446 0 0 0 255 255 255 255 200
-216.608 181.814 1473 0 0 0 255 255 255 255 200
206.631 -233.471 1370 0 0 0 255 255 255 255 200
-252.775 -217.404 1370 0 0 0 255 255 255 255 200
228.641 -205.751 1370 0 0 0 255 255 255 255 200
246.244 108.899 1448 0 0 0 255 255 255 255 200
269.175 -132.045 1411 0 0 0 255 255 255 255 200
-275.461 -184.521 1373 0 0 0 255 255 255 255 200
-311.91 15.9863 1444 0 0 0 255 255 255 255 200
-314.057 -81.9097 1425 0 0 0 255 255 255 255 200
263.01 -148.809 1408 0 0 0 255 255 255 255 200
-193.517 200.141 1478 0 0 0 255 255 255 255 200
-311.273 21.7566 1441 0 0 0 255 255 255 255 200
211.84 -227.603 1368 0 0 0 255 255 255 255 200
-292.453 -151.399 1375 0 0 0 255 255 255 255 200
256.536 91.003 1440 0 0 0 255 255 255 255 200
246.888 -179.348 1380 0 0 0 255 255 255 255 200
-313.445 -87.4868 1422 0 0 0 255 255 255 255 200
-251.433 145.951 1468 0 0 0 255 255 255 255 200
-244.493 -231.128 1386 0 0 0 255 255 255 255 200
235.378 126.73 1453 0 0 0 255 255 255 255 200
-257.394 -211.109 1365 0 0 0 255 255 255 255 200
-270.348 129.104 1410 0 0 0 255 255 255 255 200
262.177 79.4041 1439 0 0 0 255 255 255 255 200
283.841 -68.9971 1400 0 0 0 255 255 255 255 200
212.864 156.455 1459 0 0 0 255 255 255 255 200
253.501 -168.926 1386 0 0 0 255 255 255 255 200
-269.377 -195.233 1370 0 0 0 255 255 255 255 200
275.195 -115.15 1413 0 0 0 255 255 255 255 200
-257.034 139.891 1466 0 0 0 255 255 255 255 200
-309.831 38.2711 1407 0 0 0 255 255 255 255 200
195.804 174.442 1463 0 0 0 255 255 255 255 200
280.612 -92.3161 1412 0 0 0 255 255 255 255 200
217.197 -221.919 1367 0 0 0 255 255 255 255 200
241.034 -190.24 1378 0 0 0 255 255 255 255 200
-307.604 -116.131 1421 0 0 0 255 255 255 255 200
251.25 102.762 1443 0 0 0 255 255 255 255 200
-210.968 187.972 1475 0 0 0 255 255 255 255 200
-268.664 131.052 1432 0 0 0 255 255 255 255 200
-313.278 -93.1735 1421 0 0 0 255 255 255 255 200
-265.89 132.541 1449 0 0 0 255 255 255 255 200
-316.17 -70.8882 1435 0 0 0 255 255 255 255 200
-273.132 119.675 1366 0 0 0 255 255 255 255 200
234.522 -200.532 1372 0 0 0 255 255 255 255 200
262.339 -154.083 1404 0 0 0 255 255 255 255 200
-262.365 -205.16 1362 0 0 0 255 255 255 255 200
218.74 150.623 1459 0 0 0 255 255 255 255 200
-240.607 -238.436 1396 0 0 0 255 255 255 255 200
-285.958 -167.517 1370 0 0 0 255 255 255 255 200
240.926 120.762 1451 0 0 0 255 255 255 255 200
269.053 -137.662 1410 0 0 0 255 255 255 255 200
-272.055 127.248 1389 0 0 0 255 255 255 255 200
223.039 -216.723 1369 0 0 0 255 255 255 255 200
224.314 144.594 1457 0 0 0 255 255 255 255 200
-280.862 -178.875 1372 0 0 0 255 255 255 255 200
-313.114 -98.8552 1420 0 0 0 255 255 255 255 200
-291.903 -156.66 1372 0 0 0 255 255 255 255 200
-246.607 -227.902 1366 0 0 0 255 255 255 255 200
280.862 -98.0837 1413 0 0 0 255 255 255 255 200
-307.457 -121.807 1420 0 0 0 255 255 255 255 200
275.256 -120.863 1413 0 0 0 255 255 255 255 200
-205.318 194.15 1477 0 0 0 255 255 255 255 200
-251.039 -221.412 1360 0 0 0 255 255 255 255 200
-235.973 -245.129 1402 0 0 0 255 255 255 255 200
190.582 180.917 1468 0 0 0 255 255 255 255 200
229.879 138.583 1455 0 0 0 255 255 255 255 200
285.3 -75.0123 1407 0 0 0 255 255 255 255 200
252.671 -173.938 1381 0 0 0 255 255 255 255 200
-234.013 169.742 1470 0 0 0 255 255 255 255 200
246.618 -184.706 1378 0 0 0 255 255 255 255 200
-243.015 -235.301 1377 0 0 0 255 255 255 255 200
262.218 85.1926 1439 0 0 0 255 255 255 255 200
-228.238 175.747 1471 0 0 0 255 255 255 255 200
-275.763 -190.279 1374 0 0 0 255 255 255 255 200
268.758 68.057 1443 0 0 0 255 255 255 255 200
228.735 -211.361 1370 0 0 0 255 255 255 255 200
-239.95 163.858 1470 0 0 0 255 255 255 255 200
-255.805 -215.291 1356 0 0 0 255 255 255 255 200
-268.301 -199.97 1364 0 0 0 255 255 255 255 200
-306.88 -127.299 1417 0 0 0 255 255 255 255 200
256.937 96.9328 1442 0 0 0 255 255 255 255 200
261.856 -159.444 1401 0 0 0 255 255 255 255 200
-313.174 -104.606 1420 0 0 0 255 255 255 255 200
-261.974 139.385 1460 0 0 0 255 255 255 255 200
-301.265 -141.819 1390 0 0 0 255 255 255 255 200
-318.113 -65.5018 1444 0 0 0 255 255 255 255 200
246.635 114.89 1450 0 0 0 255 255 255 255 200
-245.726 157.869 1469 0 0 0 255 255 255 255 200
268.934 -143.275 1409 0 0 0 255 255 255 255 200
-318.341 -7.28725 1446 0 0 0 255 255 255 255 200
206.726 -239.107 1370 0 0 0 255 255 255 255 200
240.775 -195.584 1376 0 0 0 255 255 255 255 200
270.215 62.6019 1451 0 0 0 255 255 255 255 200
-303.784 -137.342 1402 0 0 0 255 255 255 255 200
-305.655 -132.49 1411 0 0 0 255 255 255 255 200
281.114 -103.863 1414 0 0 0 255 255 255 255 200
-318.787 -13.1319 1448 0 0 0 255 255 255 255 200
-222.612 181.886 1473 0 0 0 255 255 255 255 200
211.936 -233.226 1368 0 0 0 255 255 255 255 200
235.596 132.68 1454 0 0 0 255 255 255 255 200
-251.501 151.89 1468 0 0 0 255 255 255 255 200
207.057 168.189 1459 0 0 0 255 255 255 255 200
-270.608 134.909 1411 0 0 0 255 255 255 255 200
-299.398 -146.522 1381 0 0 0 255 255 255 255 200
275.321 -126.58 1413 0 0 0 255 255 255 255 200
-319.237 -18.9929 1450 0 0 0 255 255 255 255 200
-318.339 -1.46106 1446 0 0 0 255 255 255 255 200
212.78 162.24 1458 0 0 0 255 255 255 255 200
-291.356 -161.901 1369 0 0 0 255 255 255 255 200
-286.053 -173.113 1370 0 0 0 255 255 255 255 200
251.648 108.724 1445 0 0 0 255 255 255 255 200
-257.101 145.82 1466 0 0 0 255 255 255 255 200
-261.123 -209.67 1355 0 0 0 255 255 255 255 200
286.153 -80.9144 1411 0 0 0 255 255 255 255 200
-273.398 125.299 1367 0 0 0 255 255 255 255 200
-318.12 4.36208 1445 0 0 0 255 255 255 255 200
234.273 -205.845 1370 0 0 0 255 255 255 255 200
-313.017 -110.282 1419 0 0 0 255 255 255 255 200
-268.919 136.943 1433 0 0 0 255 255 255 255 200
268.421 73.7571 1441 0 0 0 255 255 255 255 200
217.611 -227.865 1369 0 0 0 255 255 255 255 200
-239.857 -243.318 1391 0 0 0 255 255 255 255 200
201.606 174.386 1462 0 0 0 255 255 255 255 200
-319.726 -76.1425 1424 0 0 0 255 255 255 255 200
-266.14 138.498 1450 0 0 0 255 255 255 255 200
261.003 -164.549 1396 0 0 0 255 255 255 255 200
252.209 -179.175 1378 0 0 0 255 255 255 255 200
-281.371 -184.756 1374 0 0 0 255 255 255 255 200
281.171 -109.575 1414 0 0 0 255 255 255 255 200
218.802 156.517 1459 0 0 0 255 255 255 255 200
-272.516 133.066 1391 0 0 0 255 255 255 255 200
-245.455 -232.337 1359 0 0 0 255 255 255 255 200
262.261 90.9838 1439 0 0 0 255 255 255 255 200
-217.122 188.172 1476 0 0 0 255 255 255 255 200
-315.095 33.1544 1431 0 0 0 255 255 255 255 200
241.313 126.786 1453 0 0 0 255 255 255 255 200
-200.06 200.754 1482 0 0 0 255 255 255 255 200
-319.549 -81.8434 1423 0 0 0 255 255 255 255 200
223.135 -222.34 1369 0 0 0 255 255 255 255 200
-320.804 -70.6337 1429 0 0 0 255 255 255 255 200
-298.184 -151.487 1375 0 0 0 255 255 255 255 200
268.818 -148.884 1408 0 0 0 255 255 255 255 200
-249.857 -225.845 1353 0 0 0 255 255 255 255 200
267.714 79.3331 1437 0 0 0 255 255 255 255 200
246.529 -190.193 1377 0 0 0 255 255 255 255 200
-320.35 -24.9221 1455 0 0 0 255 255 255 255 200
-318.345 10.1914 1446 0 0 0 255 255 255 255 200
-275.265 -195.48 1371 0 0 0 255 255 255 255 200
286.604 -86.7287 1413 0 0 0 255 255 255 255 200
275.193 -132.207 1412 0 0 0 255 255 255 255 200
-317.758 -25.1816 1471 0 0 0 255 255 255 255 200
-319.15 -87.4773 1421 0 0 0 255 255 255 255 200
-317.913 15.9959 1444 0 0 0 255 255 255 255 200
-267.228 -204.664 1358 0 0 0 255 255 255 255 200
259.404 -169.132 1387 0 0 0 255 255 255 255 200
-235.58 -250.379 1399 0 0 0 255 255 255 255 200
-242.246 -240.107 1372 0 0 0 255 255 255 255 200
239.993 -200.479 1371 0 0 0 255 255 255 255 200
257.163 102.811 1443 0 0 0 255 255 255 255 200
-321.886 -65.0868 1434 0 0 0 255 255 255 255 200
224.683 150.685 1459 0 0 0 255 255 255 255 200
-254.595 -219.731 1349 0 0 0 255 255 255 255 200
-317.484 21.7848 1442 0 0 0 255 255 255 255 200
-313.305 -116.117 1420 0 0 0 255 255 255 255 200
228.497 -216.661 1368 0 0 0 255 255 255 255 200
-316.838 27.5392 1439 0 0 0 255 255 255 255 200
281.23 -115.292 1414 0 0 0 255 255 255 255 200
-291.45 -167.49 1369 0 0 0 255 255 255 255 200
-318.98 -93.1634 1420 0 0 0 255 255 255 255 200
246.859 120.817 1451 0 0 0 255 255 255 255 200
196.537 180.981 1468 0 0 0 255 255 255 255 200
230.255 144.655 1457 0 0 0 255 255 255 255 200
268.131 -154.161 1404 0 0 0 255 255 255 255 200
-286.361 -178.844 1371 0 0 0 255 255 255 255 200
286.855 -92.4965 1414 0 0 0 255 255 255 255 200
-211.614 194.486 1479 0 0 0 255 255 255 255 200
-240.023 169.815 1470 0 0 0 255 255 255 255 200
-262.222 145.392 1461 0 0 0 255 255 255 255 200
-234.246 175.821 1471 0 0 0 255 255 255 255 200
-260.077 -214.289 1349 0 0 0 255 255 255 255 200
-297.623 -156.75 1372 0 0 0 255 255 255 255 200
-273.667 130.936 1368 0 0 0 255 255 255 255 200
275.069 -137.831 1411 0 0 0 255 255 255 255 200
-312.934 -121.707 1418 0 0 0 255 255 255 255 200
235.817 138.643 1455 0 0 0 255 255 255 255 200
206.976 -244.93 1371 0 0 0 255 255 255 255 200
-318.813 -98.8445 1419 0 0 0 255 255 255 255 200
212.034 -238.856 1368 0 0 0 255 255 255 255 200
252.049 114.705 1447 0 0 0 255 255 255 255 200
-245.966 163.931 1470 0 0 0 255 255 255 255 200
252.115 -184.662 1377 0 0 0 255 255 255 255 200
-271.062 140.826 1413 0 0 0 255 255 255 255 200
234.369 -211.457 1370 0 0 0 255 255 255 255 200
258.367 -174.024 1381 0 0 0 255 255 255 255 200
-239.281 -248.346 1387 0 0 0 255 255 255 255 200
281.095 -120.926 1413 0 0 0 255 255 255 255 200
-251.744 157.941 1469 0 0 0 255 255 255 255 200
286.907 -98.2058 1414 0 0 0 255 255 255 255 200
-269.177 142.846 1434 0 0 0 255 255 255 255 200
-281.884 -190.66 1376 0 0 0 255 255 255 255 200
-266.21 144.368 1450 0 0 0 255 255 255 255 200
-257.346 151.857 1467 0 0 0 255 255 255 255 200
-274.569 -200.517 1367 0 0 0 255 255 255 255 200
217.868 -233.665 1370 0 0 0 255 255 255 255 200
262.672 96.9126 1441 0 0 0 255 255 255 255 200
-228.778 182.085 1474 0 0 0 255 255 255 255 200
212.991 168.254 1459 0 0 0 255 255 255 255 200
-312.345 -127.194 1415 0 0 0 255 255 255 255 200
-272.587 138.706 1391 0 0 0 255 255 255 255 200
246.443 -195.677 1376 0 0 0 255 255 255 255 200
-306.622 -141.699 1388 0 0 0 255 255 255 255 200
241.371 132.648 1453 0 0 0 255 255 255 255 200
291.911 -69.5771 1411 0 0 0 255 255 255 255 200
218.716 162.305 1458 0 0 0 255 255 255 255 200
-244.847 -237.246 1355 0 0 0 255 255 255 255 200
-266.156 -209.316 1352 0 0 0 255 255 255 255 200
-309.19 -137.227 1400 0 0 0 255 255 255 255 200
292.701 -64.0709 1415 0 0 0 255 255 255 255 200
-311.098 -132.38 1409 0 0 0 255 255 255 255 200
267.829 -159.638 1402 0 0 0 255 255 255 255 200
-249.047 -230.569 1348 0 0 0 255 255 255 255 200
274.882 68.1388 1444 0 0 0 255 255 255 255 200
207.548 174.452 1462 0 0 0 255 255 255 255 200
274.752 -143.349 1409 0 0 0 255 255 255 255 200
239.738 -205.79 1369 0 0 0 255 255 255 255 200
223.56 -228.297 1371 0 0 0 255 255 255 255 200
-319.099 -104.668 1420 0 0 0 255 255 255 255 200
257.392 108.7 1444 0 0 0 255 255 255 255 200
-291.547 -173.085 1369 0 0 0 255 255 255 255 200
-324.139 -7.28628 1445 0 0 0 255 255 255 255 200
-297.065 -161.995 1369 0 0 0 255 255 255 255 200
-241.478 -244.88 1367 0 0 0 255 255 255 255 200
-324.827 -18.9777 1448 0 0 0 255 255 255 255 200
-324.593 -13.1303 1447 0 0 0 255 255 255 255 200
286.962 -103.918 1414 0 0 0 255 255 255 255 200
-305.161 -146.608 1381 0 0 0 255 255 255 255 200
280.961 -126.557 1412 0 0 0 255 255 255 255 200
-253.953 -224.622 1345 0 0 0 255 255 255 255 200
-235.19 -255.613 1396 0 0 0 255 255 255 255 200
292.364 -75.3734 1413 0 0 0 255 255 255 255 200
-223.291 188.375 1477 0 0 0 255 255 255 255 200
228.595 -222.276 1368 0 0 0 255 255 255 255 200
-325.288 -24.8509 1450 0 0 0 255 255 255 255 200
247.086 126.756 1452 0 0 0 255 255 255 255 200
-287.09 -184.859 1374 0 0 0 255 255 255 255 200
-324.361 -1.46168 1446 0 0 0 255 255 255 255 200
-325.215 -76.0816 1422 0 0 0 255 255 255 255 200
258.082 -179.394 1379 0 0 0 255 255 255 255 200
224.901 156.688 1460 0 0 0 255 255 255 255 200
-318.939 -110.348 1419 0 0 0 255 255 255 255 200
266.957 -164.751 1397 0 0 0 255 255 255 255 200
274.537 73.8458 1442 0 0 0 255 255 255 255 200
252.024 -190.147 1376 0 0 0 255 255 255 255 200
-324.138 4.36491 1445 0 0 0 255 255 255 255 200
-326.085 -70.5281 1426 0 0 0 255 255 255 255 200
-259.418 -219.192 1345 0 0 0 255 255 255 255 200
202.361 180.924 1467 0 0 0 255 255 255 255 200
-326.73 -64.8991 1429 0 0 0 255 255 255 255 200
-325.035 -81.7779 1421 0 0 0 255 255 255 255 200
292.614 -81.1309 1414 0 0 0 255 255 255 255 200
-262.294 151.308 1461 0 0 0 255 255 255 255 200
273.434 79.3181 1436 0 0 0 255 255 255 255 200
287.02 -109.634 1414 0 0 0 255 255 255 255 200
-273.473 -205.226 1361 0 0 0 255 255 255 255 200
-270.945 146.453 1412 0 0 0 255 255 255 255 200
234.126 -216.759 1368 0 0 0 255 255 255 255 200
-304.145 -151.686 1376 0 0 0 255 255 255 255 200
274.634 -148.961 1408 0 0 0 255 255 255 255 200
-238.362 -252.983 1381 0 0 0 255 255 255 255 200
280.831 -132.183 1411 0 0 0 255 255 255 255 200
246.001 -200.867 1373 0 0 0 255 255 255 255 200
-326.202 -30.7835 1454 0 0 0 255 255 255 255 200
-281.991 -196.3 1376 0 0 0 255 255 255 255 200
262.903 102.789 1442 0 0 0 255 255 255 255 200
252.452 120.706 1449 0 0 0 255 255 255 255 200
-324.142 10.1907 1445 0 0 0 255 255 255 255 200
230.792 150.851 1460 0 0 0 255 255 255 255 200
265.323 -169.339 1388 0 0 0 255 255 255 255 200
-324.858 -87.4688 1420 0 0 0 255 255 255 255 200
212.29 -244.673 1369 0 0 0 255 255 255 255 200
-240.262 175.897 1471 0 0 0 255 255 255 255 200
236.203 144.717 1457 0 0 0 255 255 255 255 200
-246.041 169.891 1470 0 0 0 255 255 255 255 200
-320.404 38.8659 1428 0 0 0 255 255 255 255 200
-296.944 -167.465 1368 0 0 0 255 255 255 255 200
-272.662 144.35 1391 0 0 0 255 255 255 255 200
292.661 -86.8376 1414 0 0 0 255 255 255 255 200
-265.284 -214.084 1347 0 0 0 255 255 255 255 200
-266.283 150.242 1450 0 0 0 255 255 255 255 200
-217.933 194.825 1481 0 0 0 255 255 255 255 200
-323.926 16.0057 1444 0 0 0 255 255 255 255 200
-319.007 -116.105 1419 0 0 0 255 255 255 255 200
-251.818 163.894 1469 0 0 0 255 255 255 255 200
-269.439 148.762 1435 0 0 0 255 255 255 255 200
-291.861 -178.815 1370 0 0 0 255 255 255 255 200
-257.419 157.799 1467 0 0 0 255 255 255 255 200
-328.064 -59.372 1435 0 0 0 255 255 255 255 200
217.97 -239.307 1370 0 0 0 255 255 255 255 200
241.598 138.609 1454 0 0 0 255 255 255 255 200
-323.489 21.7981 1442 0 0 0 255 255 255 255 200
-244.421 -242.309 1352 0 0 0 255 255 255 255 200
287.081 -115.354 1414 0 0 0 255 255 255 255 200
239.836 -211.401 1369 0 0 0 255 255 255 255 200
-321.952 33.2673 1435 0 0 0 255 255 255 255 200
-248.794 -235.786 1346 0 0 0 255 255 255 255 200
-324.913 -93.22 1420 0 0 0 255 255 255 255 200
218.782 168.205 1458 0 0 0 255 255 255 255 200
274.128 -154.351 1405 0 0 0 255 255 255 255 200
257.802 114.68 1446 0 0 0 255 255 255 255 200
-234.8 182.162 1474 0 0 0 255 255 255 255 200
-323.056 27.5751 1440 0 0 0 255 255 255 255 200
280.704 -137.806 1410 0 0 0 255 255 255 255 200
-303.573 -156.957 1373 0 0 0 255 255 255 255 200
292.711 -92.5472 1414 0 0 0 255 255 255 255 200
223.661 -233.937 1371 0 0 0 255 255 255 255 200
257.986 -184.888 1378 0 0 0 255 255 255 255 200
-240.889 -249.803 1363 0 0 0 255 255 255 255 200
264.073 -174.113 1381 0 0 0 255 255 255 255 200
-253.502 -229.659 1342 0 0 0 255 255 255 255 200
251.752 -195.488 1374 0 0 0 255 255 255 255 200
-318.854 -121.78 1418 0 0 0 255 255 255 255 200
-234.801 -260.83 1393 0 0 0 255 255 255 255 200
278.465 63.1517 1463 0 0 0 255 255 255 255 200
213.496 174.519 1462 0 0 0 255 255 255 255 200
228.864 -228.065 1369 0 0 0 255 255 255 255 200
-324.743 -98.9046 1419 0 0 0 255 255 255 255 200
-272.179 -209.738 1354 0 0 0 255 255 255 255 200
-288.031 -191.043 1378 0 0 0 255 255 255 255 200
-314.14 -136.917 1396 0 0 0 255 255 255 255 200
247.315 132.708 1453 0 0 0 255 255 255 255 200
224.813 162.482 1459 0 0 0 255 255 255 255 200
-311.974 -141.579 1386 0 0 0 255 255 255 255 200
286.942 -120.991 1413 0 0 0 255 255 255 255 200
-281.281 -201.36 1372 0 0 0 255 255 255 255 200
-316.309 -132.177 1406 0 0 0 255 255 255 255 200
-258.955 -224.236 1342 0 0 0 255 255 255 255 200
-229.321 188.453 1477 0 0 0 255 255 255 255 200
-318.03 -127.18 1414 0 0 0 255 255 255 255 200
292.763 -98.2597 1414 0 0 0 255 255 255 255 200
273.429 -159.607 1401 0 0 0 255 255 255 255 200
-296.826 -172.932 1367 0 0 0 255 255 255 255 200
245.92 -206.339 1372 0 0 0 255 255 255 255 200
234.055 -222.215 1367 0 0 0 255 255 255 255 200
-237.618 -257.766 1376 0 0 0 255 255 255 255 200
263.319 108.753 1444 0 0 0 255 255 255 255 200
208.183 180.868 1466 0 0 0 255 255 255 255 200
252.684 126.64 1450 0 0 0 255 255 255 255 200
280.58 -143.425 1409 0 0 0 255 255 255 255 200
-303.005 -162.209 1370 0 0 0 255 255 255 255 200
-330.411 -18.9627 1446 0 0 0 255 255 255 255 200
-310.71 -146.59 1380 0 0 0 255 255 255 255 200
-271.406 152.399 1414 0 0 0 255 255 255 255 200
-262.548 157.337 1462 0 0 0 255 255 255 255 200
-264.611 -218.981 1343 0 0 0 255 255 255 255 200
-328.466 -36.9004 1464 0 0 0 255 255 255 255 200
-325.035 -104.732 1420 0 0 0 255 255 255 255 200
-292.605 -184.829 1373 0 0 0 255 255 255 255 200
-330.402 -13.1289 1446 0 0 0 255 255 255 255 200
286.806 -126.625 1412 0 0 0 255 255 255 255 200
292.819 -103.975 1414 0 0 0 255 255 255 255 200
-330.881 -24.8315 1448 0 0 0 255 255 255 255 200
-272.936 150.107 1392 0 0 0 255 255 255 255 200
231.015 156.861 1461 0 0 0 255 255 255 255 200
263.781 -179.486 1379 0 0 0 255 255 255 255 200
257.706 -190.242 1376 0 0 0 255 255 255 255 200
-269.515 154.584 1435 0 0 0 255 255 255 255 200
272.538 -164.718 1396 0 0 0 255 255 255 255 200
239.762 -216.86 1368 0 0 0 255 255 255 255 200
-330.396 -7.29546 1446 0 0 0 255 255 255 255 200
299.025 -69.912 1417 0 0 0 255 255 255 255 200
-331.355 -30.7172 1450 0 0 0 255 255 255 255 200
-330.932 -76.0751 1421 0 0 0 255 255 255 255 200
-331.585 -70.4726 1424 0 0 0 255 255 255 255 200
251.484 -200.818 1372 0 0 0 255 255 255 255 200
-244.179 -247.54 1350 0 0 0 255 255 255 255 200
-246.286 175.975 1471 0 0 0 255 255 255 255 200
-266.726 156.337 1452 0 0 0 255 255 255 255 200
258.215 120.68 1448 0 0 0 255 255 255 255 200
-332.241 -64.8482 1427 0 0 0 255 255 255 255 200
-257.671 163.859 1468 0 0 0 255 255 255 255 200
-248.728 -241.174 1345 0 0 0 255 255 255 255 200
-330.393 -1.46222 1446 0 0 0 255 255 255 255 200
236.754 150.916 1460 0 0 0 255 255 255 255 200
-324.872 -110.415 1419 0 0 0 255 255 255 255 200
-280.163 -206.093 1366 0 0 0 255 255 255 255 200
-252.066 169.968 1470 0 0 0 255 255 255 255 200
241.993 144.682 1456 0 0 0 255 255 255 255 200
298.855 -75.5756 1416 0 0 0 255 255 255 255 200
268.643 102.769 1441 0 0 0 255 255 255 255 200
300.043 -64.4238 1422 0 0 0 255 255 255 255 200
-271.087 -214.358 1348 0 0 0 255 255 255 255 200
280.459 -149.04 1408 0 0 0 255 255 255 255 200
223.765 -239.585 1371 0 0 0 255 255 255 255 200
-253.431 -235.029 1341 0 0 0 255 255 255 255 200
-240.302 -254.701 1359 0 0 0 255 255 255 255 200
-234.078 -265.649 1388 0 0 0 255 255 255 255 200
292.878 -109.695 1414 0 0 0 255 255 255 255 200
-310.35 -151.998 1378 0 0 0 255 255 255 255 200
-288.349 -196.838 1379 0 0 0 255 255 255 255 200
271.064 -169.427 1388 0 0 0 255 255 255 255 200
-224.276 195.166 1483 0 0 0 255 255 255 255 200
-330.981 -81.8285 1421 0 0 0 255 255 255 255 200
286.674 -132.254 1411 0 0 0 255 255 255 255 200
-330.394 4.3709 1446 0 0 0 255 255 255 255 200
247.377 138.576 1453 0 0 0 255 255 255 255 200
-297.146 -178.658 1368 0 0 0 255 255 255 255 200
298.688 -81.2336 1415 0 0 0 255 255 255 255 200
-302.661 -167.563 1368 0 0 0 255 255 255 255 200
-240.83 182.24 1474 0 0 0 255 255 255 255 200
228.968 -233.7 1369 0 0 0 255 255 255 255 200
-333.367 -59.2844 1432 0 0 0 255 255 255 255 200
224.727 168.274 1458 0 0 0 255 255 255 255 200
219.151 174.35 1460 0 0 0 255 255 255 255 200
-258.687 -229.435 1340 0 0 0 255 255 255 255 200
245.841 -211.811 1371 0 0 0 255 255 255 255 200
-330.801 -87.5229 1420 0 0 0 255 255 255 255 200
-330.399 10.2043 1446 0 0 0 255 255 255 255 200
-332.518 -36.6957 1455 0 0 0 255 255 255 255 200
-324.941 -116.175 1419 0 0 0 255 255 255 255 200
234.159 -227.836 1367 0 0 0 255 255 255 255 200
263.492 -184.848 1377 0 0 0 255 255 255 255 200
-236.703 -262.324 1370 0 0 0 255 255 255 255 200
-329.951 16.0158 1444 0 0 0 255 255 255 255 200
298.736 -86.9476 1415 0 0 0 255 255 255 255 200
263.739 114.736 1446 0 0 0 255 255 255 255 200
-271.102 157.92 1412 0 0 0 255 255 255 255 200
252.919 132.586 1451 0 0 0 255 255 255 255 200
279.943 -154.432 1405 0 0 0 255 255 255 255 200
292.941 -115.417 1414 0 0 0 255 255 255 255 200
269.787 -174.203 1381 0 0 0 255 255 255 255 200
-330.624 -93.2121 1419 0 0 0 255 255 255 255 200
-264.138 -224.02 1340 0 0 0 255 255 255 255 200
257.616 -195.727 1375 0 0 0 255 255 255 255 200
-319.067 -136.608 1392 0 0 0 255 255 255 255 200
286.544 -137.88 1410 0 0 0 255 255 255 255 200
-293.565 -191.013 1377 0 0 0 255 255 255 255 200
-324.327 -121.682 1416 0 0 0 255 255 255 255 200
-329.734 21.8269 1443 0 0 0 255 255 255 255 200
-235.517 188.66 1478 0 0 0 255 255 255 255 200
-278.637 -210.473 1358 0 0 0 255 255 255 255 200
-309.993 -157.395 1376 0 0 0 255 255 255 255 200
230.925 162.662 1460 0 0 0 255 255 255 255 200
-273.017 155.765 1392 0 0 0 255 255 255 255 200
-317.089 -141.359 1383 0 0 0 255 255 255 255 200
-321.505 -131.975 1403 0 0 0 255 255 255 255 200
239.69 -222.318 1367 0 0 0 255 255 255 255 200
298.787 -92.6645 1415 0 0 0 255 255 255 255 200
-323.259 -126.988 1411 0 0 0 255 255 255 255 200
214.15 180.938 1466 0 0 0 255 255 255 255 200
251.401 -206.29 1371 0 0 0 255 255 255 255 200
-262.805 163.379 1463 0 0 0 255 255 255 255 200
-269.595 160.41 1435 0 0 0 255 255 255 255 200
-302.32 -172.907 1366 0 0 0 255 255 255 255 200
-329.521 27.6305 1442 0 0 0 255 255 255 255 200
-327.734 39.0532 1434 0 0 0 255 255 255 255 200
-330.684 -98.9659 1419 0 0 0 255 255 255 255 200
258.453 126.613 1449 0 0 0 255 255 255 255 200
292.799 -121.058 1413 0 0 0 255 255 255 255 200
-270.4 -219.262 1344 0 0 0 255 255 255 255 200
-328.854 33.3807 1439 0 0 0 255 255 255 255 200
269.069 108.731 1443 0 0 0 255 255 255 255 200
-288.253 -202.354 1378 0 0 0 255 255 255 255 200
279.429 -159.806 1402 0 0 0 255 255 255 255 200
-266.804 162.23 1452 0 0 0 255 255 255 255 200
-297.687 -184.533 1370 0 0 0 255 255 255 255 200
298.629 -98.3147 1414 0 0 0 255 255 255 255 200
-333.515 -54.4705 1459 0 0 0 255 255 255 255 200
-233.188 -270.239 1382 0 0 0 255 255 255 255 200
-248.665 -246.561 1344 0 0 0 255 255 255 255 200
-244.12 -252.949 1349 0 0 0 255 255 255 255 200
236.983 156.929 1461 0 0 0 255 255 255 255 200
-316.261 -146.573 1379 0 0 0 255 255 255 255 200
286.418 -143.502 1409 0 0 0 255 255 255 255 200
-253.552 -240.578 1341 0 0 0 255 255 255 255 200
-239.717 -259.575 1355 0 0 0 255 255 255 255 200
242.391 150.776 1458 0 0 0 255 255 255 255 200
269.293 -179.449 1378 0 0 0 255 255 255 255 200
-257.925 169.931 1469 0 0 0 255 255 255 255 200
-309.414 -162.662 1373 0 0 0 255 255 255 255 200
263.397 -190.339 1376 0 0 0 255 255 255 255 200
245.765 -217.281 1370 0 0 0 255 255 255 255 200
247.612 144.548 1454 0 0 0 255 255 255 255 200
-252.318 176.055 1471 0 0 0 255 255 255 255 200
228.907 -239.167 1368 0 0 0 255 255 255 255 200
-336.469 -24.8122 1446 0 0 0 255 255 255 255 200
-330.748 -104.723 1419 0 0 0 255 255 255 255 200
256.966 -200.772 1371 0 0 0 255 255 255 255 200
-258.614 -234.799 1339 0 0 0 255 255 255 255 200
-336.455 -18.9742 1446 0 0 0 255 255 255 255 200
292.661 -126.695 1412 0 0 0 255 255 255 255 200
-336.718 -30.6723 1447 0 0 0 255 255 255 255 200
278.32 -164.805 1396 0 0 0 255 255 255 255 200
263.979 120.655 1447 0 0 0 255 255 255 255 200
298.686 -104.034 1414 0 0 0 255 255 255 255 200
-277.113 -214.794 1350 0 0 0 255 255 255 255 200
-336.446 -13.1368 1446 0 0 0 255 255 255 255 200
252.983 138.449 1451 0 0 0 255 255 255 255 200
-230.488 195.378 1484 0 0 0 255 255 255 255 200
-235.789 -266.842 1364 0 0 0 255 255 255 255 200
-246.869 182.321 1474 0 0 0 255 255 255 255 200
234.437 -233.636 1368 0 0 0 255 255 255 255 200
-336.651 -76.0694 1420 0 0 0 255 255 255 255 200
-337.747 -64.7981 1425 0 0 0 255 255 255 255 200
-263.864 -229.213 1338 0 0 0 255 255 255 255 200
-337.316 -70.4674 1423 0 0 0 255 255 255 255 200
-336.439 -7.29967 1446 0 0 0 255 255 255 255 200
-294.103 -196.95 1379 0 0 0 255 255 255 255 200
225.106 174.421 1460 0 0 0 255 255 255 255 200
230.679 168.344 1458 0 0 0 255 255 255 255 200
-330.582 -110.406 1418 0 0 0 255 255 255 255 200
-302.424 -178.502 1366 0 0 0 255 255 255 255 200
-287.113 -207.114 1372 0 0 0 255 255 255 255 200
-271.569 163.893 1414 0 0 0 255 255 255 255 200
251.32 -211.76 1370 0 0 0 255 255 255 255 200
286.294 -149.121 1408 0 0 0 255 255 255 255 200
277.013 -169.639 1389 0 0 0 255 255 255 255 200
298.536 -109.678 1413 0 0 0 255 255 255 255 200
-273.101 161.428 1392 0 0 0 255 255 255 255 200
-316.353 -152.201 1379 0 0 0 255 255 255 255 200
-337.289 -54.1304 1449 0 0 0 255 255 255 255 200
-337.67 -36.6172 1451 0 0 0 255 255 255 255 200
-336.701 -81.8224 1420 0 0 0 255 255 255 255 200
292.526 -132.327 1411 0 0 0 255 255 255 255 200
304.951 -75.6721 1417 0 0 0 255 255 255 255 200
-308.839 -167.909 1370 0 0 0 255 255 255 255 200
305.554 -70.0998 1420 0 0 0 255 255 255 255 200
-338.893 -59.2388 1430 0 0 0 255 255 255 255 200
240.148 -228.276 1369 0 0 0 255 255 255 255 200
-336.67 -1.46387 1447 0 0 0 255 255 255 255 200
219.824 180.763 1464 0 0 0 255 255 255 255 200
-269.716 -224.141 1340 0 0 0 255 255 255 255 200
-262.885 169.318 1463 0 0 0 255 255 255 255 200
-335.513 -42.9497 1468 0 0 0 255 255 255 255 200
-241.565 188.742 1478 0 0 0 255 255 255 255 200
258.694 132.558 1450 0 0 0 255 255 255 255 200
-336.438 4.37393 1446 0 0 0 255 255 255 255 200
269.498 114.713 1445 0 0 0 255 255 255 255 200
-323.505 -136.104 1386 0 0 0 255 255 255 255 200
269.194 -184.944 1377 0 0 0 255 255 255 255 200
-330.42 -116.084 1417 0 0 0 255 255 255 255 200
-298.449 -190.569 1373 0 0 0 255 255 255 255 200
-232.13 -274.589 1375 0 0 0 255 255 255 255 200
263.114 -195.685 1374 0 0 0 255 255 255 255 200
304.996 -81.3948 1417 0 0 0 255 255 255 255 200
-321.49 -140.834 1377 0 0 0 255 255 255 255 200
-336.755 -87.578 1420 0 0 0 255 255 255 255 200
-270.053 166.474 1437 0 0 0 255 255 255 255 200
-326.221 -131.587 1398 0 0 0 255 255 255 255 200
275.709 -174.422 1382 0 0 0 255 255 255 255 200
285.767 -154.516 1405 0 0 0 255 255 255 255 200
256.694 -206.091 1369 0 0 0 255 255 255 255 200
245.513 -222.587 1368 0 0 0 255 255 255 255 200
298.599 -115.4 1413 0 0 0 255 255 255 255 200
-336.443 10.2109 1446 0 0 0 255 255 255 255 200
307.022 -64.687 1427 0 0 0 255 255 255 255 200
-248.789 -252.136 1344 0 0 0 255 255 255 255 200
-243.883 -258.167 1347 0 0 0 255 255 255 255 200
-285.138 -211.211 1362 0 0 0 255 255 255 255 200
237.053 162.843 1461 0 0 0 255 255 255 255 200
-329.795 -121.586 1414 0 0 0 255 255 255 255 200
-267.07 168.243 1453 0 0 0 255 255 255 255 200
-253.487 -245.952 1340 0 0 0 255 255 255 255 200
-328.473 -126.797 1408 0 0 0 255 255 255 255 200
304.829 -87.0587 1416 0 0 0 255 255 255 255 200
292.393 -137.956 1410 0 0 0 255 255 255 255 200
-276.001 -219.382 1344 0 0 0 255 255 255 255 200
-239.311 -264.62 1352 0 0 0 255 255 255 255 200
-336.576 -93.2709 1419 0 0 0 255 255 255 255 200
-336.219 16.0371 1445 0 0 0 255 255 255 255 200
-316.22 -157.72 1378 0 0 0 255 255 255 255 200
264.222 126.587 1448 0 0 0 255 255 255 255 200
274.628 108.636 1441 0 0 0 255 255 255 255 200
-258.738 -240.343 1339 0 0 0 255 255 255 255 200
229.184 -244.993 1369 0 0 0 255 255 255 255 200
253.049 144.317 1451 0 0 0 255 255 255 255 200
-308.266 -173.138 1367 0 0 0 255 255 255 255 200
-294.005 -202.469 1378 0 0 0 255 255 255 255 200
-302.754 -184.237 1367 0 0 0 255 255 255 255 200
248.021 150.637 1456 0 0 0 255 255 255 255 200
-258.182 176.018 1470 0 0 0 255 255 255 255 200
304.666 -92.7174 1415 0 0 0 255 255 255 255 200
-335.999 21.8558 1444 0 0 0 255 255 255 255 200
242.959 156.998 1461 0 0 0 255 255 255 255 200
298.455 -121.04 1412 0 0 0 255 255 255 255 200
234.375 -239.102 1367 0 0 0 255 255 255 255 200
285.039 -159.778 1401 0 0 0 255 255 255 255 200
-235.05 -271.519 1359 0 0 0 255 255 255 255 200
-339.324 -42.6833 1458 0 0 0 255 255 255 255 200
251.059 -217.07 1368 0 0 0 255 255 255 255 200
-336.4 -98.9585 1418 0 0 0 255 255 255 255 200
-263.79 -234.572 1337 0 0 0 255 255 255 255 200
-321.347 -146.346 1376 0 0 0 255 255 255 255 200
-271.464 169.528 1413 0 0 0 255 255 255 255 200
269.097 -190.438 1376 0 0 0 255 255 255 255 200
292.057 -143.479 1408 0 0 0 255 255 255 255 200
-335.782 27.6672 1443 0 0 0 255 255 255 255 200
-272.991 166.976 1391 0 0 0 255 255 255 255 200
304.505 -98.3709 1414 0 0 0 255 255 255 255 200
275.206 -179.674 1379 0 0 0 255 255 255 255 200
262.641 -200.874 1371 0 0 0 255 255 255 255 200
-252.915 182.404 1474 0 0 0 255 255 255 255 200
-236.715 195.592 1485 0 0 0 255 255 255 255 200
230.91 174.375 1459 0 0 0 255 255 255 255 200
258.759 138.42 1450 0 0 0 255 255 255 255 200
-283.164 -215.232 1352 0 0 0 255 255 255 255 200
-269.436 -229.336 1338 0 0 0 255 255 255 255 200
240.432 -234.087 1370 0 0 0 255 255 255 255 200
-336.464 -104.715 1418 0 0 0 255 255 255 255 200
-299.214 -196.636 1376 0 0 0 255 255 255 255 200
269.93 120.715 1447 0 0 0 255 255 255 255 200
298.314 -126.676 1411 0 0 0 255 255 255 255 200
225.488 180.59 1462 0 0 0 255 255 255 255 200
-316.089 -163.235 1377 0 0 0 255 255 255 255 200
236.638 168.417 1458 0 0 0 255 255 255 255 200
-335.568 33.4713 1442 0 0 0 255 255 255 255 200
-231.074 -278.89 1368 0 0 0 255 255 255 255 200
284.314 -165.013 1397 0 0 0 255 255 255 255 200
256.8 -211.711 1369 0 0 0 255 255 255 255 200
-334.893 39.214 1439 0 0 0 255 255 255 255 200
-307.922 -178.479 1365 0 0 0 255 255 255 255 200
-293.056 -207.383 1373 0 0 0 255 255 255 255 200
304.564 -104.093 1414 0 0 0 255 255 255 255 200
-342.511 -18.9859 1446 0 0 0 255 255 255 255 200
-342.761 -24.8448 1447 0 0 0 255 255 255 255 200
245.801 -228.385 1369 0 0 0 255 255 255 255 200
-340.516 -48.7408 1463 0 0 0 255 255 255 255 200
-275.508 -224.431 1341 0 0 0 255 255 255 255 200
-329.956 -130.823 1389 0 0 0 255 255 255 255 200
-327.665 -135.502 1379 0 0 0 255 255 255 255 200
-343.016 -30.7126 1448 0 0 0 255 255 255 255 200
-336.296 -110.397 1417 0 0 0 255 255 255 255 200
291.931 -149.097 1407 0 0 0 255 255 255 255 200
-343.05 -70.463 1422 0 0 0 255 255 255 255 200
-263.328 175.503 1465 0 0 0 255 255 255 255 200
-303.087 -189.987 1368 0 0 0 255 255 255 255 200
-270.327 172.439 1438 0 0 0 255 255 255 255 200
310.213 -59.5502 1442 0 0 0 255 255 255 255 200
-342.615 -76.1182 1420 0 0 0 255 255 255 255 200
-321.908 -152.186 1378 0 0 0 255 255 255 255 200
-247.79 188.953 1479 0 0 0 255 255 255 255 200
-343.73 -64.8395 1425 0 0 0 255 255 255 255 200
-248.917 -257.719 1344 0 0 0 255 255 255 255 200
275.066 114.613 1443 0 0 0 255 255 255 255 200
282.981 -169.854 1390 0 0 0 255 255 255 255 200
-342.738 -13.1539 1447 0 0 0 255 255 255 255 200
264.468 132.531 1449 0 0 0 255 255 255 255 200
-243.829 -263.573 1346 0 0 0 255 255 255 255 200
-253.804 -251.701 1341 0 0 0 255 255 255 255 200
298.176 -132.308 1410 0 0 0 255 255 255 255 200
304.41 -109.741 1413 0 0 0 255 255 255 255 200
-343.123 -54.127 1448 0 0 0 255 255 255 255 200
-238.908 -269.649 1349 0 0 0 255 255 255 255 200
-258.865 -245.895 1339 0 0 0 255 255 255 255 200
-342.732 -7.309 1447 0 0 0 255 255 255 255 200
250.801 -222.371 1366 0 0 0 255 255 255 255 200
268.807 -195.787 1374 0 0 0 255 255 255 255 200
-326.09 -140.411 1372 0 0 0 255 255 255 255 200
242.864 162.804 1460 0 0 0 255 255 255 255 200
-315.273 -168.38 1373 0 0 0 255 255 255 255 200
275.104 -185.177 1378 0 0 0 255 255 255 255 200
-332.961 -126.336 1402 0 0 0 255 255 255 255 200
-335.893 -115.993 1415 0 0 0 255 255 255 255 200
-342.666 -81.8749 1420 0 0 0 255 255 255 255 200
-267.522 174.39 1455 0 0 0 255 255 255 255 200
262.363 -206.197 1369 0 0 0 255 255 255 255 200
-334.782 -121.318 1410 0 0 0 255 255 255 255 200
-344.896 -59.2767 1430 0 0 0 255 255 255 255 200
-290.828 -211.331 1362 0 0 0 255 255 255 255 200
-263.917 -240.111 1337 0 0 0 255 255 255 255 200
311.065 -75.7695 1418 0 0 0 255 255 255 255 200
311.68 -70.1899 1421 0 0 0 255 255 255 255 200
234.658 -244.926 1368 0 0 0 255 255 255 255 200
281.446 -174.517 1382 0 0 0 255 255 255 255 200
-282.031 -219.832 1346 0 0 0 255 255 255 255 200
-234.486 -276.367 1355 0 0 0 255 255 255 255 200
291.393 -154.491 1404 0 0 0 255 255 255 255 200
-342.966 -1.46544 1448 0 0 0 255 255 255 255 200
-298.896 -201.999 1374 0 0 0 255 255 255 255 200
-342.48 -87.5726 1419 0 0 0 255 255 255 255 200
304.26 -115.385 1412 0 0 0 255 255 255 255 200
310.892 -81.4421 1417 0 0 0 255 255 255 255 200
269.992 126.562 1447 0 0 0 255 255 255 255 200
