ply
format ascii 1.0
element vertex 1421
property float x
property float y
property float z
property uchar diffuse_red
property uchar diffuse_green
property uchar diffuse_blue
end_header
313.855 15.8614 1432 255 255 255
-101.099 61.6453 1443 255 255 255
31.0993 114.126 1454 255 255 255
100.294 119.691 1449 255 255 255
-15.1424 102.515 1454 255 255 255
283.512 50.2138 1428 255 255 255
-214.755 -98.4434 1426 255 255 255
-138.693 58.1631 1359 255 255 255
-32.4529 96.6667 1453 255 255 255
146.492 113.947 1447 255 255 255
59.8778 119.65 1450 255 255 255
243.48 78.9608 1433 255 255 255
-82.7845 83.4761 1424 255 255 255
319.585 10.0909 1431 255 255 255
-78.0739 78.776 1442 255 255 255
-165.444 31.0472 1355 255 255 255
-225.876 -149.604 1420 255 255 255
-106.412 61.4007 1437 255 255 255
-220.22 -115.435 1423 255 255 255
-209.299 -81.4228 1429 255 255 255
-104.883 71.7798 1416 255 255 255
-99.0355 77.2425 1413 255 255 255
269.932 66.9119 1418 255 255 255
25.3169 114.12 1454 255 255 255
106.158 119.796 1450 255 255 255
2.19411 108.382 1455 255 255 255
-123.742 69.7114 1374 255 255 255
-95.3557 67.3766 1443 255 255 255
-226.258 -155.566 1422 255 255 255
-61.2437 85.0138 1451 255 255 255
375.157 -81.7386 1412 255 255 255
325.321 4.32207 1430 255 255 255
-85.4604 97.0653 1375 255 255 255
-97.2434 86.8785 1387 255 255 255
-192.323 -41.4673 1433 255 255 255
-170.894 25.6533 1355 255 255 255
-226.485 -161.436 1423 255 255 255
347.368 -24.4442 1422 255 255 255
-225.973 -143.967 1421 255 255 255
-49.7429 90.8371 1452 255 255 255
-105.833 66.7478 1429 255 255 255
248.644 78.7768 1429 255 255 255
-225.952 -223.765 1414 255 255 255
330.832 -1.44458 1428 255 255 255
-83.5858 78.5691 1438 255 255 255
54.1779 119.803 1452 255 255 255
-225.73 -229.24 1412 255 255 255
-198.15 -52.932 1433 255 255 255
363.961 -53.1004 1416 255 255 255
-20.9212 102.518 1454 255 255 255
-133.849 63.8458 1365 255 255 255
-89.5528 73.0583 1442 255 255 255
-3.58647 108.308 1454 255 255 255
276.516 61.4138 1422 255 255 255
-225.509 -234.706 1410 255 255 255
-225.913 -138.229 1421 255 255 255
369.523 -64.5493 1414 255 255 255
358.412 -41.6426 1418 255 255 255
-88.9442 78.2538 1432 255 255 255
-190.142 -24.0366 1417 255 255 255
48.3971 119.792 1452 255 255 255
264.323 72.631 1419 255 255 255
-203.85 -64.3675 1432 255 255 255
-38.2292 96.6729 1453 255 255 255
19.5486 114.193 1455 255 255 255
112.111 119.985 1452 255 255 255
-215.018 -92.8506 1428 255 255 255
232.952 85.055 1440 255 255 255
-220.483 -109.866 1425 255 255 255
-94.2576 77.9391 1426 255 255 255
76.9647 125.06 1445 255 255 255
-176.61 20.2866 1357 255 255 255
336.576 -7.20736 1427 255 255 255
-66.9256 84.9064 1449 255 255 255
-209.415 -75.7515 1430 255 255 255
253.783 78.5935 1425 255 255 255
352.877 -30.1739 1420 255 255 255
-100.901 67.2487 1440 255 255 255
290.599 44.6815 1434 255 255 255
117.92 120.011 1452 255 255 255
-226.015 -132.589 1422 255 255 255
-227.191 -167.672 1427 255 255 255
-95.0376 72.868 1438 255 255 255
-190.486 4.00092 1339 255 255 255
382.526 -105.13 1416 255 255 255
42.6472 119.864 1453 255 255 255
82.7865 125.165 1446 255 255 255
302.426 33.1817 1434 255 255 255
-192.176 -35.7215 1432 255 255 255
71.2518 125.129 1446 255 255 255
375.366 -76.045 1413 255 255 255
-77.869 84.2843 1438 255 255 255
381.911 -99.2097 1414 255 255 255
-223.226 -169.011 1439 255 255 255
13.7635 114.19 1455 255 255 255
395.926 -201.08 1392 255 255 255
-128.867 69.5255 1370 255 255 255
-191.493 -29.901 1427 255 255 255
342.088 -12.9606 1425 255 255 255
-72.4933 84.6829 1445 255 255 255
-26.7008 102.522 1454 255 255 255
395.8 -206.719 1391 255 255 255
-181.948 14.8684 1356 255 255 255
308.359 27.4245 1434 255 255 255
283.342 55.9197 1427 255 255 255
123.734 120.037 1452 255 255 255
-55.5185 90.8458 1452 255 255 255
314.085 21.6467 1433 255 255 255
-9.37218 108.384 1455 255 255 255
-198.131 -47.2063 1433 255 255 255
363.926 -47.3556 1416 255 255 255
396.341 -195.581 1394 255 255 255
395.678 -212.356 1390 255 255 255
-104.676 77.2573 1413 255 255 255
296.92 38.9883 1436 255 255 255
-43.9765 96.6136 1452 255 255 255
396.475 -189.935 1395 255 255 255
-186.869 9.4339 1352 255 255 255
381.57 -93.3752 1413 255 255 255
-220.594 -104.211 1426 255 255 255
-100.423 72.6277 1433 255 255 255
-155.148 47.4062 1360 255 255 255
-226.119 -126.945 1423 255 255 255
319.817 15.8711 1432 255 255 255
-215.132 -87.1838 1429 255 255 255
395.561 -217.992 1389 255 255 255
-149.808 52.8533 1361 255 255 255
36.8907 119.938 1454 255 255 255
369.741 -58.8464 1415 255 255 255
-77.4482 89.513 1430 255 255 255
-160.604 41.9965 1360 255 255 255
347.598 -18.7057 1423 255 255 255
-203.97 -58.6811 1433 255 255 255
129.552 120.065 1452 255 255 255
88.7414 125.444 1449 255 255 255
-144.571 58.3504 1363 255 255 255
65.6238 125.373 1449 255 255 255
238.66 85.0333 1439 255 255 255
358.639 -35.9218 1419 255 255 255
325.554 10.0973 1431 255 255 255
375.314 -70.2961 1413 255 255 255
394.233 -185.86 1409 255 255 255
381.234 -87.5519 1412 255 255 255
135.28 120.012 1451 255 255 255
7.98445 114.266 1456 255 255 255
140.907 119.877 1449 255 255 255
-76.9198 94.5476 1420 255 255 255
-166.188 36.6122 1361 255 255 255
94.5926 125.552 1450 255 255 255
-209.68 -70.1236 1432 255 255 255
-15.1556 108.386 1455 255 255 255
-226.225 -121.297 1424 255 255 255
259.444 78.5764 1424 255 255 255
-32.4811 102.528 1454 255 255 255
31.1274 120.013 1455 255 255 255
331.296 4.32505 1430 255 255 255
-197.977 -41.4532 1432 255 255 255
-61.2535 90.7928 1451 255 255 255
-220.707 -98.5523 1427 255 255 255
227.596 90.9871 1443 255 255 255
-139.526 63.9564 1367 255 255 255
-171.66 31.1951 1361 255 255 255
59.9326 125.532 1451 255 255 255
-49.7514 96.6218 1452 255 255 255
100.455 125.661 1451 255 255 255
336.81 -1.44513 1428 255 255 255
-215.249 -81.5117 1430 255 255 255
244.027 84.8943 1436 255 255 255
290.422 50.417 1433 255 255 255
353.356 -24.4601 1422 255 255 255
2.1961 114.265 1456 255 255 255
25.3397 120.007 1455 255 255 255
381.173 -81.7977 1412 255 255 255
364.152 -41.6416 1417 255 255 255
-203.949 -52.9515 1433 255 255 255
-196.707 -29.8278 1423 255 255 255
-177.139 25.7757 1361 255 255 255
-226.334 -115.645 1425 255 255 255
-232.003 -149.879 1422 255 255 255
-66.8901 90.6157 1448 255 255 255
369.963 -53.1374 1416 255 255 255
276.939 67.2299 1424 255 255 255
-232.232 -155.742 1423 255 255 255
-231.756 -223.862 1414 255 255 255
106.328 125.771 1452 255 255 255
-20.9396 108.39 1455 255 255 255
-209.654 -64.392 1432 255 255 255
-232.464 -161.619 1424 255 255 255
308.377 33.201 1434 255 255 255
-72.4045 90.3143 1443 255 255 255
270.92 72.8728 1423 255 255 255
375.531 -64.5951 1414 255 255 255
54.2274 125.692 1453 255 255 255
314.1 27.4217 1433 255 255 255
302.658 38.9832 1435 255 255 255
342.562 -7.21163 1427 255 255 255
400.665 -206.286 1387 255 255 255
19.5528 120.002 1455 255 255 255
-38.2625 102.534 1454 255 255 255
-231.692 -229.502 1413 255 255 255
-197.825 -35.7092 1431 255 255 255
-220.823 -92.8882 1428 255 255 255
112.136 125.797 1452 255 255 255
319.828 21.6448 1432 255 255 255
296.944 44.7687 1436 255 255 255
-97.7508 92.8775 1394 255 255 255
401.215 -195.172 1390 255 255 255
400.542 -211.911 1386 255 255 255
-232.102 -144.231 1423 255 255 255
-134.651 69.6955 1373 255 255 255
283.373 61.6625 1427 255 255 255
358.869 -30.194 1420 255 255 255
401.082 -200.804 1389 255 255 255
48.4413 125.68 1453 255 255 255
-110.475 77.3822 1415 255 255 255
-3.59208 114.265 1456 255 255 255
347.832 -12.9596 1424 255 255 255
-182.625 20.3537 1361 255 255 255
-232.863 -167.626 1426 255 255 255
233.314 90.963 1442 255 255 255
325.562 15.87 1431 255 255 255
388.302 -105.133 1415 255 255 255
401.64 -189.675 1392 255 255 255
-232.04 -138.483 1423 255 255 255
249.552 84.8152 1434 255 255 255
-215.369 -75.8342 1431 255 255 255
-226.445 -109.989 1426 255 255 255
-203.788 -47.1907 1432 255 255 255
387.677 -99.2126 1413 255 255 255
-76.7169 99.9289 1416 255 255 255
-55.5279 96.6311 1452 255 255 255
400.712 -217.692 1386 255 255 255
381.385 -76.1 1413 255 255 255
-92.0713 98.2821 1392 255 255 255
118.028 125.91 1453 255 255 255
42.6861 125.756 1454 255 255 255
-231.982 -132.739 1423 255 255 255
353.342 -18.7046 1422 255 255 255
-26.7242 108.394 1455 255 255 255
13.776 120.08 1456 255 255 255
369.928 -47.3884 1416 255 255 255
-188.118 14.9287 1361 255 255 255
387.331 -93.3778 1412 255 255 255
265.479 78.6706 1425 255 255 255
-44.0148 102.471 1453 255 255 255
-166.445 42.1027 1363 255 255 255
-161.209 47.5951 1365 255 255 255
-9.38047 114.266 1456 255 255 255
331.533 10.1039 1431 255 255 255
364.383 -35.9209 1418 255 255 255
-220.941 -87.219 1429 255 255 255
123.847 125.938 1453 255 255 255
-155.962 53.1022 1367 255 255 255
36.899 125.747 1454 255 255 255
386.388 -112.01 1430 255 255 255
-81.3302 104.253 1398 255 255 255
-209.776 -58.7034 1433 255 255 255
-150.594 58.5813 1368 255 255 255
375.753 -58.8881 1415 255 255 255
337.047 4.32505 1429 255 255 255
290.249 56.146 1432 255 255 255
-145.118 64.0209 1368 255 255 255
129.581 125.88 1452 255 255 255
71.4164 131.185 1449 255 255 255
-226.559 -104.328 1427 255 255 255
140.842 125.596 1448 255 255 255
254.891 84.678 1431 255 255 255
386.99 -87.5543 1411 255 255 255
-232.088 -127.089 1424 255 255 255
-203.629 -41.4394 1431 255 255 255
-72.2162 95.7995 1439 255 255 255
7.98619 120.078 1456 255 255 255
135.31 125.824 1451 255 255 255
-172.176 36.732 1365 255 255 255
-193.477 9.49341 1360 255 255 255
342.559 -1.44477 1427 255 255 255
239.03 90.94 1441 255 255 255
-61.2639 96.5748 1451 255 255 255
-105.136 83.2413 1419 255 255 255
-215.49 -70.1511 1432 255 255 255
65.6845 131.259 1450 255 255 255
-198.104 4.0475 1354 255 255 255
404.798 -211.162 1380 255 255 255
77.3025 131.384 1451 255 255 255
83.0923 131.404 1451 255 255 255
31.1344 125.825 1455 255 255 255
359.104 -24.4592 1421 255 255 255
381.602 -70.3966 1414 255 255 255
-177.539 31.2747 1364 255 255 255
-32.5096 108.4 1455 255 255 255
-15.169 114.269 1456 255 255 255
227.794 96.8486 1444 255 255 255
-203.188 -35.6475 1428 255 255 255
302.682 44.7629 1435 255 255 255
405.64 -200.241 1384 255 255 255
-76.4607 105.207 1411 255 255 255
-232.198 -121.434 1425 255 255 255
405.51 -205.855 1383 255 255 255
-49.7947 102.48 1453 255 255 255
314.337 33.2207 1434 255 255 255
308.613 39.0058 1435 255 255 255
-221.061 -81.5446 1430 255 255 255
2.19661 120.077 1456 255 255 255
-66.9015 96.3864 1448 255 255 255
-226.675 -98.6623 1428 255 255 255
296.97 50.5506 1436 255 255 255
320.067 27.4383 1433 255 255 255
-209.755 -52.9717 1433 255 255 255
406.068 -194.765 1386 255 255 255
25.3454 125.819 1455 255 255 255
348.314 -7.21101 1426 255 255 255
59.9881 131.425 1452 255 255 255
370.158 -41.6705 1417 255 255 255
89.0074 131.606 1453 255 255 255
325.801 21.6582 1432 255 255 255
405.263 -217.08 1381 255 255 255
387.201 -81.8578 1412 255 255 255
-125.921 76.5037 1398 255 255 255
-237.887 -155.701 1422 255 255 255
94.8106 131.628 1453 255 255 255
-183.17 25.8607 1365 255 255 255
-140.463 69.8663 1376 255 255 255
353.58 -12.9588 1423 255 255 255
375.978 -53.175 1416 255 255 255
-116.377 77.5627 1418 255 255 255
-232.146 -115.695 1425 255 255 255
-238.125 -161.577 1423 255 255 255
-215.463 -64.4172 1432 255 255 255
364.617 -30.1933 1419 255 255 255
-237.819 -149.945 1422 255 255 255
100.617 131.651 1453 255 255 255
331.541 15.8801 1431 255 255 255
-20.9582 114.273 1456 255 255 255
406.793 -189.416 1389 255 255 255
19.5572 125.814 1455 255 255 255
381.553 -64.6417 1414 255 255 255
260.578 84.6598 1430 255 255 255
244.747 90.9178 1440 255 255 255
106.427 131.676 1453 255 255 255
283.805 67.5018 1429 255 255 255
-38.2961 108.407 1455 255 255 255
-3.5928 120.077 1456 255 255 255
-237.735 -224.121 1415 255 255 255
408.847 -204.681 1374 255 255 255
277.754 73.1668 1428 255 255 255
-221.028 -75.8118 1430 255 255 255
-237.501 -229.604 1413 255 255 255
54.2775 131.593 1454 255 255 255
-238.533 -167.583 1425 255 255 255
-55.538 102.419 1452 255 255 255
-237.921 -144.295 1423 255 255 255
233.516 96.823 1443 255 255 255
408.719 -210.261 1373 255 255 255
-209.589 -47.2086 1432 255 255 255
394.083 -105.138 1414 255 255 255
-226.794 -92.9918 1429 255 255 255
-130.861 76.1393 1391 255 255 255
112.24 131.703 1453 255 255 255
337.288 10.1035 1430 255 255 255
393.449 -99.2167 1412 255 255 255
-188.816 20.4361 1366 255 255 255
48.4861 131.58 1454 255 255 255
-72.0787 101.326 1436 255 255 255
-232.26 -110.036 1426 255 255 255
-161.579 53.1575 1368 255 255 255
-237.858 -138.544 1423 255 255 255
409.575 -199.389 1377 255 255 255
-166.948 47.6802 1367 255 255 255
290.281 61.9121 1432 255 255 255
-234.897 -174.871 1438 255 255 255
406.028 -223.175 1383 255 255 255
359.342 -18.7169 1422 255 255 255
118.056 131.73 1453 255 255 255
-156.321 58.6845 1370 255 255 255
-172.316 42.2094 1366 255 255 255
387.417 -76.1559 1413 255 255 255
410.01 -193.938 1379 255 255 255
222.265 102.749 1446 255 255 255
13.7791 125.896 1456 255 255 255
375.942 -47.422 1416 255 255 255
272.102 78.9315 1429 255 255 255
343.041 4.32812 1429 255 255 255
-26.7479 114.278 1456 255 255 255
-44.0535 108.34 1454 255 255 255
409.191 -216.155 1374 255 255 255
370.392 -35.9458 1418 255 255 255
42.7256 131.66 1455 255 255 255
-209.279 -41.4262 1430 255 255 255
129.522 131.609 1451 255 255 255
-215.59 -58.7264 1433 255 255 255
393.376 -93.4478 1412 255 255 255
123.876 131.76 1453 255 255 255
250.289 90.8335 1438 255 255 255
-208.533 -35.5861 1425 255 255 255
-237.964 -132.891 1424 255 255 255
-151.163 64.2734 1373 255 255 255
-121.875 77.4706 1416 255 255 255
412.12 -203.508 1365 255 255 255
-9.38885 120.161 1457 255 255 255
-177.942 36.7985 1367 255 255 255
314.359 39.0017 1434 255 255 255
381.777 -58.9306 1415 255 255 255
-194.477 15.0003 1367 255 255 255
-135.847 75.8302 1385 255 255 255
348.556 -1.44542 1427 255 255 255
-61.275 102.36 1451 255 255 255
-226.914 -87.3162 1430 255 255 255
140.875 131.402 1448 255 255 255
308.637 44.7888 1435 255 255 255
-232.377 -104.372 1427 255 255 255
36.9331 131.65 1455 255 255 255
-145.774 69.7841 1374 255 255 255
-87.4662 104.941 1407 255 255 255
364.856 -24.4584 1420 255 255 255
-66.8212 102.019 1446 255 255 255
-239.447 -173.975 1430 255 255 255
302.92 50.5792 1436 255 255 255
239.238 96.7985 1442 255 255 255
297 56.3341 1436 255 255 255
135.342 131.641 1451 255 255 255
412.291 -209.208 1365 255 255 255
393.029 -87.6198 1411 255 255 255
320.308 33.2408 1434 255 255 255
-221.308 -70.1793 1432 255 255 255
7.99349 125.98 1457 255 255 255
326.044 27.4553 1433 255 255 255
-238.074 -127.234 1425 255 255 255
413.301 -192.831 1370 255 255 255
413.161 -198.394 1369 255 255 255
71.5326 137.175 1451 255 255 255
-32.5386 114.284 1456 255 255 255
387.637 -70.4483 1414 255 255 255
65.746 137.158 1451 255 255 255
266.638 84.761 1431 255 255 255
-183.717 31.4005 1369 255 255 255
331.785 21.672 1432 255 255 255
-15.1827 120.163 1457 255 255 255
-213.109 -35.4 1417 255 255 255
31.1632 131.732 1456 255 255 255
354.319 -7.21551 1426 255 255 255
-215.567 -52.9924 1433 255 255 255
-226.879 -81.5784 1430 255 255 255
-49.8385 108.35 1454 255 255 255
-238.019 -121.488 1425 255 255 255
228.151 102.792 1446 255 255 255
-105.523 89.2131 1424 255 255 255
255.823 90.7502 1436 255 255 255
-232.496 -98.7043 1428 255 255 255
376.176 -41.6999 1417 255 255 255
77.428 137.383 1453 255 255 255
60.0028 137.237 1452 255 255 255
-71.9419 106.833 1433 255 255 255
337.532 15.8904 1431 255 255 255
359.584 -12.9673 1423 255 255 255
2.19866 125.979 1457 255 255 255
413.072 -215.231 1367 255 255 255
410.561 -222.549 1378 255 255 255
25.3689 131.726 1456 255 255 255
-221.28 -64.4432 1432 255 255 255
370.63 -30.2141 1419 255 255 255
343.046 10.1033 1429 255 255 255
83.2846 137.498 1454 255 255 255
382.007 -53.2133 1416 255 255 255
-243.713 -155.772 1422 255 255 255
393.244 -81.919 1412 255 255 255
89.0905 137.519 1454 255 255 255
410.303 -99.2967 1328 255 255 255
-243.957 -161.65 1423 255 255 255
244.96 96.775 1441 255 255 255
-243.643 -150.013 1422 255 255 255
94.8994 137.543 1454 255 255 255
-167.209 53.2135 1369 255 255 255
-189.516 25.9839 1371 255 255 255
-55.5486 108.211 1452 255 255 255
387.587 -64.6891 1414 255 255 255
-238.133 -115.826 1426 255 255 255
-20.977 120.167 1457 255 255 255
-244.204 -167.541 1424 255 255 255
410.307 -100.633 1347 255 255 255
100.711 137.567 1454 255 255 255
-38.3302 114.291 1456 255 255 255
-243.576 -144.259 1422 255 255 255
-215.397 -47.2271 1432 255 255 255
-111.741 83.9621 1431 255 255 255
19.5753 131.72 1456 255 255 255
54.2908 137.411 1454 255 255 255
-141.3 75.7956 1384 255 255 255
290.52 67.7274 1433 255 255 255
365.098 -18.7164 1421 255 255 255
399.869 -105.143 1413 255 255 255
-3.59601 125.979 1457 255 255 255
-76.8556 111.391 1418 255 255 255
-243.319 -229.709 1413 255 255 255
-172.836 47.8007 1370 255 255 255
348.802 4.32831 1428 255 255 255
-232.617 -93.0314 1429 255 255 255
106.526 137.593 1454 255 255 255
409.617 -94.9589 1345 255 255 255
-227.005 -75.8962 1431 255 255 255
-201.179 9.60196 1375 255 255 255
410.222 -93.8372 1328 255 255 255
233.883 102.765 1445 255 255 255
284.637 73.462 1433 255 255 255
-243.731 -224.381 1416 255 255 255
-178.216 42.3166 1369 255 255 255
-162.305 58.8741 1374 255 255 255
308.665 50.5732 1435 255 255 255
-244.625 -173.567 1426 255 255 255
399.508 -99.2922 1412 255 255 255
-156.911 64.3862 1375 255 255 255
-214.928 -41.4133 1429 255 255 255
112.344 137.621 1454 255 255 255
278.572 79.1383 1432 255 255 255
417.448 -192.146 1364 255 255 255
-243.683 -138.606 1423 255 255 255
320.33 39.0253 1434 255 255 255
314.603 44.8153 1435 255 255 255
48.5314 137.493 1455 255 255 255
-44.0623 114.142 1454 255 255 255
302.951 56.366 1436 255 255 255
13.7824 131.716 1456 255 255 255
326.063 33.2381 1433 255 255 255
417.168 -203.23 1362 255 255 255
-61.2445 108.074 1450 255 255 255
-195.195 20.5336 1372 255 255 255
222.463 108.635 1447 255 255 255
297.033 62.1194 1436 255 255 255
-238.25 -110.161 1427 255 255 255
381.97 -47.456 1416 255 255 255
393.463 -76.2128 1413 255 255 255
-66.7878 107.713 1445 255 255 255
-221.41 -58.7499 1433 255 255 255
376.414 -35.9711 1418 255 255 255
-151.623 69.9566 1377 255 255 255
118.166 137.65 1454 255 255 255
-71.7054 112.161 1428 255 255 255
-243.621 -132.857 1423 255 255 255
399.151 -93.4526 1411 255 255 255
42.7361 137.481 1455 255 255 255
-26.7719 120.172 1457 255 255 255
354.565 -1.446 1427 255 255 255
261.714 90.7942 1436 255 255 255
-99.3817 100.065 1417 255 255 255
123.907 137.586 1453 255 255 255
417.341 -208.923 1362 255 255 255
-183.998 36.9193 1371 255 255 255
332.032 27.4726 1433 255 255 255
411.938 -228.984 1382 255 255 255
129.643 137.523 1452 255 255 255
337.544 21.6708 1431 255 255 255
370.872 -24.4753 1420 255 255 255
-9.39732 126.067 1458 255 255 255
387.815 -58.9738 1415 255 255 255
-232.741 -87.3534 1430 255 255 255
418.224 -198.124 1366 255 255 255
-238.202 -104.418 1427 255 255 255
272.905 84.9226 1433 255 255 255
398.799 -87.6243 1410 255 255 255
250.855 96.8197 1441 255 255 255
-227.133 -70.2083 1432 255 255 255
135.376 137.462 1451 255 255 255
360.083 -7.21492 1425 255 255 255
413.594 -98.7824 1320 255 255 255
-243.733 -127.202 1424 255 255 255
410.454 -89.6368 1348 255 255 255
36.9675 137.566 1456 255 255 255
7.9954 131.804 1457 255 255 255
-49.8143 114.074 1453 255 255 255
239.614 102.739 1444 255 255 255
343.294 15.8898 1430 255 255 255
411.38 -88.6469 1332 255 255 255
415.369 -222.086 1374 255 255 255
228.196 108.605 1446 255 255 255
-93.7428 105.705 1417 255 255 255
-221.387 -53.0136 1433 255 255 255
-32.5677 120.179 1457 255 255 255
-189.803 31.5037 1373 255 255 255
31.1708 137.557 1456 255 255 255
393.686 -70.5009 1414 255 255 255
-232.705 -81.6131 1430 255 255 255
216.623 114.406 1447 255 255 255
71.6003 143.087 1452 255 255 255
-15.1964 126.07 1458 255 255 255
-146.855 75.8166 1384 255 255 255
365.601 -12.9759 1423 255 255 255
65.8082 143.069 1452 255 255 255
349.051 10.1102 1429 255 255 255
-243.847 -121.542 1425 255 255 255
-238.324 -98.7475 1428 255 255 255
418.439 -215.096 1365 255 255 255
382.207 -41.7299 1417 255 255 255
2.19922 131.803 1457 255 255 255
-82.685 111.643 1421 255 255 255
413.825 -93.4217 1321 255 255 255
415.951 -106.18 1346 255 255 255
421.557 -191.463 1358 255 255 255
-227.104 -64.4698 1432 255 255 255
376.656 -30.2353 1419 255 255 255
25.375 137.55 1456 255 255 255
-105.838 95.161 1428 255 255 255
-55.5598 114.006 1452 255 255 255
354.566 4.32845 1427 255 255 255
83.306 143.324 1454 255 255 255
60.0595 143.151 1453 255 255 255
-221.058 -47.213 1431 255 255 255
388.048 -53.2523 1416 255 255 255
-249.621 -161.611 1422 255 255 255
-173.231 53.3867 1373 255 255 255
314.632 50.6031 1435 255 255 255
-249.547 -155.844 1422 255 255 255
-66.6626 113.246 1442 255 255 255
399.3 -81.9813 1412 255 255 255
-167.96 58.9358 1375 255 255 255
421.582 -202.656 1357 255 255 255
-249.874 -167.501 1423 255 255 255
77.5545 143.402 1455 255 255 255
256.581 96.7984 1440 255 255 255
308.912 56.3985 1436 255 255 255
302.985 62.1546 1436 255 255 255
320.579 44.8422 1435 255 255 255
-249.475 -150.082 1422 255 255 255
-202.062 15.1599 1381 255 255 255
371.119 -18.7291 1421 255 255 255
89.1748 143.446 1455 255 255 255
422.033 -197.276 1359 255 255 255
326.313 39.0492 1434 255 255 255
245.345 102.714 1443 255 255 255
-178.752 47.9218 1373 255 255 255
-243.964 -115.879 1426 255 255 255
19.5801 137.544 1456 255 255 255
-20.996 126.074 1458 255 255 255
-117.872 84.2734 1436 255 255 255
267.8 90.9025 1437 255 255 255
-38.3646 120.187 1457 255 255 255
94.989 143.47 1455 255 255 255
-250.13 -173.404 1424 255 255 255
332.052 33.2589 1433 255 255 255
-61.2147 113.783 1449 255 255 255
-111.994 89.8578 1434 255 255 255
-232.834 -75.9284 1431 255 255 255
-238.449 -93.0721 1429 255 255 255
291.167 73.6557 1436 255 255 255
-195.916 26.1075 1377 255 255 255
100.806 143.495 1455 255 255 255
393.913 -64.7831 1415 255 255 255
297.277 67.9542 1437 255 255 255
-249.145 -229.817 1413 255 255 255
-162.915 64.5935 1379 255 255 255
-3.59935 131.893 1458 255 255 255
405.949 -105.225 1413 255 255 255
-220.731 -41.4299 1429 255 255 255
234.091 108.652 1446 255 255 255
54.3422 143.333 1455 255 255 255
-137.437 82.2981 1401 255 255 255
-184.281 42.4553 1373 255 255 255
360.333 -1.44566 1426 255 255 255
-249.582 -144.427 1423 255 255 255
337.796 27.471 1432 255 255 255
405.294 -99.2986 1411 255 255 255
416.765 -228.51 1378 255 255 255
-208.706 4.15099 1388 255 255 255
106.627 143.523 1455 255 255 255
412.782 -96.9972 1375 255 255 255
285.274 79.4014 1436 255 255 255
48.5439 143.319 1455 255 255 255
-220.097 -35.6141 1425 255 255 255
415.001 -88.2558 1325 255 255 255
-44.102 120.031 1455 255 255 255
222.662 114.532 1448 255 255 255
-227.237 -58.7742 1433 255 255 255
388.011 -47.4908 1416 255 255 255
343.547 21.685 1431 255 255 255
-244.084 -110.211 1427 255 255 255
-157.73 70.2316 1382 255 255 255
-249.743 -224.645 1417 255 255 255
279.198 85.0853 1435 255 255 255
112.451 143.551 1455 255 255 255
404.932 -93.4585 1410 255 255 255
382.449 -35.9969 1418 255 255 255
13.7953 137.635 1457 255 255 255
118.197 143.483 1454 255 255 255
422.69 -208.793 1360 255 255 255
399.522 -76.2707 1413 255 255 255
-249.691 -138.768 1424 255 255 255
123.939 143.416 1453 255 255 255
-26.7963 126.079 1458 255 255 255
418.101 -98.5679 1316 255 255 255
419.322 -105.638 1338 255 255 255
-71.8211 118.031 1430 255 255 255
376.902 -24.4924 1420 255 255 255
414.364 -103.014 1380 255 255 255
-9.39954 131.895 1458 255 255 255
-133.139 83.0993 1415 255 255 255
-232.802 -70.1892 1431 255 255 255
42.7765 143.406 1456 255 255 255
135.317 143.188 1450 255 255 255
129.677 143.351 1452 255 255 255
-238.575 -87.3915 1430 255 255 255
-249.628 -133.012 1424 255 255 255
349.304 15.9006 1430 255 255 255
366.108 -7.21955 1425 255 255 255
-190.23 37.0674 1376 255 255 255
251.076 102.691 1442 255 255 255
425.628 -190.781 1352 255 255 255
-123.443 84.1748 1434 255 255 255
-251.091 -179.825 1429 255 255 255
7.99747 137.632 1457 255 255 255
404.861 -87.692 1410 255 255 255
36.9771 143.395 1456 255 255 255
420.769 -221.949 1372 255 255 255
394.145 -59.0594 1416 255 255 255
239.827 108.624 1445 255 255 255
-49.8591 119.958 1454 255 255 255
262.489 96.8453 1440 255 255 255
-142.648 82.0849 1397 255 255 255
-244.206 -104.538 1428 255 255 255
418.018 -93.1482 1316 255 255 255
-88.603 111.975 1425 255 255 255
-152.746 76.0028 1387 255 255 255
371.369 -12.9755 1422 255 255 255
413.305 -91.4899 1377 255 255 255
-66.538 118.759 1439 255 255 255
-227.214 -53.0355 1433 255 255 255
418.01 -108.14 1372 255 255 255
314.663 56.3925 1435 255 255 255
228.401 114.501 1447 255 255 255
-249.742 -127.35 1425 255 255 255
355.068 10.1173 1429 255 255 255
-15.2 131.898 1458 255 255 255
-128.642 83.8422 1428 255 255 255
326.339 44.8385 1434 255 255 255
320.608 50.6335 1435 255 255 255
-77.414 117.882 1428 255 255 255
-32.5973 126.086 1458 255 255 255
-238.538 -81.6487 1430 255 255 255
415.631 -84.0511 1346 255 255 255
308.946 62.1905 1436 255 255 255
426.426 -196.719 1354 255 255 255
382.425 -30.2356 1418 255 255 255
410.584 -104.935 1408 255 255 255
399.748 -70.5543 1414 255 255 255
216.82 120.309 1448 255 255 255
273.903 91.012 1438 255 255 255
426.283 -202.232 1353 255 255 255
2.19981 137.63 1457 255 255 255
31.2003 143.485 1457 255 255 255
388.252 -41.7603 1417 255 255 255
-244.16 -98.7917 1428 255 255 255
360.587 4.33176 1427 255 255 255
424.115 -215.121 1364 255 255 255
-55.5716 119.805 1452 255 255 255
-232.936 -64.4971 1432 255 255 255
332.306 39.0737 1434 255 255 255
303.233 67.9926 1437 255 255 255
414.949 -85.0418 1363 255 255 255
25.3816 143.379 1456 255 255 255
410.212 -99.095 1407 255 255 255
-255.365 -167.345 1421 255 255 255
-226.876 -47.2325 1431 255 255 255
-202.801 20.7513 1386 255 255 255
-255.286 -161.574 1421 255 255 255
376.887 -18.7289 1420 255 255 255
-249.859 -121.684 1426 255 255 255
-179.291 53.5605 1377 255 255 255
338.052 33.2803 1433 255 255 255
-61.1854 119.487 1448 255 255 255
-174.007 59.1268 1379 255 255 255
394.103 -53.2918 1416 255 255 255
-168.591 64.6611 1380 255 255 255
-255.626 -173.243 1422 255 255 255
65.9165 149.094 1454 255 255 255
-106.08 101.073 1431 255 255 255
409.844 -93.2666 1406 255 255 255
297.523 73.7991 1438 255 255 255
-255.389 -155.918 1422 255 255 255
-196.638 31.7222 1382 255 255 255
245.564 108.598 1444 255 255 255
60.117 149.077 1454 255 255 255
405.37 -82.0445 1412 255 255 255
71.7674 149.216 1455 255 255 255
343.803 27.489 1432 255 255 255
-184.834 48.0784 1377 255 255 255
-100.172 106.545 1428 255 255 255
19.5852 143.373 1456 255 255 255
256.985 102.739 1442 255 255 255
409.194 -111.878 1424 255 255 255
-255.316 -150.153 1422 255 255 255
-249.804 -115.932 1426 255 255 255
414.303 -104.422 1400 255 255 255
-38.3994 126.094 1458 255 255 255
423.274 -105.255 1332 255 255 255
366.362 -1.44634 1426 255 255 255
77.6286 149.339 1456 255 255 255
419.528 -88.065 1321 255 255 255
291.614 79.5552 1438 255 255 255
-21.0153 131.992 1459 255 255 255
83.4429 149.361 1456 255 255 255
-238.67 -75.9616 1431 255 255 255
422.186 -228.37 1376 255 255 255
413.63 -98.5397 1398 255 255 255
-3.60017 137.725 1458 255 255 255
-244.288 -93.1138 1429 255 255 255
89.2599 149.384 1456 255 255 255
-163.527 70.355 1384 255 255 255
-256.071 -179.281 1424 255 255 255
234.301 114.55 1447 255 255 255
54.3567 149.164 1455 255 255 255
349.561 21.6995 1431 255 255 255
399.979 -64.8323 1415 255 255 255
95.0798 149.41 1456 255 255 255
268.406 96.8934 1440 255 255 255
-232.909 -58.7581 1432 255 255 255
-226.699 -41.476 1430 255 255 255
-254.979 -229.927 1413 255 255 255
-118.219 90.2528 1440 255 255 255
222.711 120.358 1448 255 255 255
-255.425 -144.495 1423 255 255 255
100.903 149.436 1456 255 255 255
285.716 85.3085 1438 255 255 255
413.257 -92.7436 1397 255 255 255
-112.325 95.8467 1438 255 255 255
-226.049 -35.6537 1426 255 255 255
382.675 -24.4926 1419 255 255 255
388.497 -36.0231 1418 255 255 255
106.729 149.465 1456 255 255 255
371.885 -7.21926 1424 255 255 255
394.065 -47.5261 1416 255 255 255
13.7989 143.467 1457 255 255 255
-249.926 -110.261 1427 255 255 255
-190.798 42.6872 1380 255 255 255
48.5902 149.253 1456 255 255 255
419.312 -83.685 1339 255 255 255
410.064 -87.5741 1407 255 255 255
355.326 15.9114 1430 255 255 255
-44.1725 126.017 1457 255 255 255
428.352 -208.82 1359 255 255 255
-244.247 -87.3696 1429 255 255 255
423.555 -98.5792 1315 255 255 255
-255.537 -138.834 1424 255 255 255
314.699 62.1839 1435 255 255 255
405.595 -76.3295 1413 255 255 255
326.368 50.6292 1434 255 255 255
112.558 149.495 1456 255 255 255
-238.638 -70.2197 1431 255 255 255
-26.8209 131.998 1459 255 255 255
320.641 56.4264 1435 255 255 255
118.31 149.424 1455 255 255 255
-83.2846 118.147 1431 255 255 255
42.788 149.24 1456 255 255 255
-148.575 82.284 1400 255 255 255
-71.9376 123.921 1432 255 255 255
129.712 149.183 1452 255 255 255
251.3 108.573 1443 255 255 255
-66.5066 124.424 1438 255 255 255
377.141 -12.9753 1421 255 255 255
360.845 10.1173 1428 255 255 255
-9.4082 137.821 1459 255 255 255
124.057 149.354 1454 255 255 255
308.984 67.9845 1436 255 255 255
-158.665 76.19 1390 255 255 255
280.023 91.1226 1439 255 255 255
-255.471 -133.075 1424 255 255 255
-94.622 112.387 1430 255 255 255
332.333 44.8666 1434 255 255 255
-232.885 -53.0209 1432 255 255 255
-210.663 9.78762 1401 255 255 255
431.259 -190.806 1351 255 255 255
240.043 114.521 1446 255 255 255
338.075 39.0714 1433 255 255 255
426.479 -221.975 1371 255 255 255
-49.9045 125.855 1455 255 255 255
423.471 -93.1589 1315 255 255 255
400.215 -59.1041 1416 255 255 255
415.934 -86.4057 1386 255 255 255
-250.052 -104.586 1428 255 255 255
8.00504 143.562 1458 255 255 255
262.903 102.789 1442 255 255 255
431.429 -196.454 1351 255 255 255
413.878 -111.573 1419 255 255 255
416.757 -110.796 1408 255 255 255
-244.208 -81.6281 1429 255 255 255
37.0124 149.332 1457 255 255 255
343.823 33.2787 1432 255 255 255
228.609 120.408 1448 255 255 255
-255.589 -127.41 1425 255 255 255
303.484 73.8408 1438 255 255 255
366.621 4.33503 1427 255 255 255
-238.608 -64.4802 1431 255 255 255
388.473 -30.2575 1418 255 255 255
-15.2141 137.824 1459 255 255 255
-32.6273 132.005 1459 255 255 255
274.332 96.9426 1440 255 255 255
31.2086 149.322 1457 255 255 255
419.857 -110.099 1398 255 255 255
405.825 -70.6087 1414 255 255 255
394.31 -41.7913 1417 255 255 255
-123.98 90.273 1440 255 255 255
431.923 -202.259 1352 255 255 255
-250.004 -98.8372 1428 255 255 255
-55.6223 125.694 1453 255 255 255
-232.701 -47.2525 1431 255 255 255
-61.1991 125.275 1448 255 255 255
-261.031 -167.308 1420 255 255 255
2.20202 143.561 1458 255 255 255
429.797 -215.149 1363 255 255 255
-260.951 -161.539 1420 255 255 255
414.368 -87.2702 1401 255 255 255
-226.352 -29.9907 1428 255 255 255
217.169 126.31 1450 255 255 255
349.822 27.5073 1432 255 255 255
297.773 79.6546 1439 255 255 255
410.871 -81.9926 1410 255 255 255
-77.6483 123.938 1432 255 255 255
372.143 -1.44593 1425 255 255 255
-255.708 -121.741 1426 255 255 255
355.339 21.6991 1430 255 255 255
-203.98 26.4401 1394 255 255 255
25.4058 149.315 1457 255 255 255
383.199 -18.7554 1421 255 255 255
400.172 -53.3321 1416 255 255 255
-106.248 106.938 1433 255 255 255
-261.056 -155.884 1421 255 255 255
428.154 -105.11 1329 255 255 255
291.862 85.414 1439 255 255 255
-261.483 -173.327 1422 255 255 255
257.214 108.625 1443 255 255 255
-174.911 64.9637 1386 255 255 255
-244.344 -75.9424 1430 255 255 255
-180.352 59.4044 1385 255 255 255
-260.981 -150.12 1421 255 255 255
-197.648 37.4317 1389 255 255 255
423.264 -83.3816 1333 255 255 255
-169.468 70.5301 1387 255 255 255
424.679 -88.0085 1319 255 255 255
234.352 120.376 1447 255 255 255
-238.581 -58.7426 1431 255 255 255
-134.289 89.5009 1427 255 255 255
245.955 114.573 1446 255 255 255
-112.346 101.588 1438 255 255 255
60.175 155.017 1455 255 255 255
-261.753 -179.242 1423 255 255 255
-38.4347 132.014 1459 255 255 255
268.643 102.769 1441 255 255 255
-250.135 -93.1565 1429 255 255 255
320.677 62.2212 1435 255 255 255
-21.0348 137.923 1460 255 255 255
66.0255 155.141 1456 255 255 255
-210.819 15.3967 1402 255 255 255
-89.1816 118.414 1434 255 255 255
-118.404 96.1338 1442 255 255 255
-255.831 -116.068 1427 255 255 255
-261.093 -144.464 1422 255 255 255
-186.06 53.9296 1386 255 255 255
-3.60349 143.66 1459 255 255 255
332.363 50.6609 1434 255 255 255
-129.474 90.1059 1437 255 255 255
-154.311 82.3664 1401 255 255 255
326.629 56.4611 1435 255 255 255
406.06 -64.8822 1415 255 255 255
83.5235 155.311 1457 255 255 255
19.6174 149.411 1458 255 255 255
71.8861 155.267 1457 255 255 255
-139.323 89.0846 1420 255 255 255
428.227 -228.564 1376 255 255 255
222.915 126.274 1449 255 255 255
-232.682 -41.5224 1431 255 255 255
314.957 68.0246 1436 255 255 255
286.161 91.2343 1440 255 255 255
89.3461 155.336 1457 255 255 255
-260.822 -230.04 1413 255 255 255
361.36 15.9226 1430 255 255 255
377.931 -7.22401 1424 255 255 255
54.4092 155.107 1456 255 255 255
-260.568 -235.526 1411 255 255 255
-100.544 112.643 1433 255 255 255
95.1716 155.362 1457 255 255 255
77.7568 155.395 1458 255 255 255
394.56 -36.0497 1418 255 255 255
-66.476 130.085 1437 255 255 255
-244.311 -70.202 1430 255 255 255
106.758 155.313 1456 255 255 255
400.134 -47.5619 1416 255 255 255
338.338 44.8952 1434 255 255 255
-218.509 -1.42226 1415 255 255 255
101 155.39 1457 255 255 255
309.241 73.8321 1437 255 255 255
48.6038 155.092 1456 255 255 255
-261.207 -138.803 1423 255 255 255
-255.777 -110.313 1427 255 255 255
411.392 -76.3352 1412 255 255 255
389.001 -24.5276 1420 255 255 255
366.883 10.1247 1428 255 255 255
-250.093 -87.4097 1429 255 255 255
344.087 39.0969 1433 255 255 255
-44.2131 131.933 1458 255 255 255
434.021 -208.848 1358 255 255 255
280.267 96.9929 1440 255 255 255
112.59 155.344 1456 255 255 255
383.188 -12.9843 1421 255 255 255
429.341 -98.6667 1315 255 255 255
118.343 155.27 1455 255 255 255
-9.41052 143.661 1459 255 255 255
129.748 155.021 1452 255 255 255
-26.8458 137.929 1460 255 255 255
-226.658 -24.3125 1430 255 255 255
124.092 155.198 1454 255 255 255
13.8216 149.509 1459 255 255 255
436.572 -190.692 1349 255 255 255
-262.579 -185.561 1427 255 255 255
349.842 33.3009 1432 255 255 255
-238.723 -53.0439 1432 255 255 255
-72.0549 129.83 1434 255 255 255
251.7 114.547 1445 255 255 255
42.8293 155.186 1457 255 255 255
-261.324 -133.139 1424 255 255 255
240.261 120.429 1447 255 255 255
372.405 4.3354 1426 255 255 255
-164.968 76.5424 1396 255 255 255
211.618 132.279 1452 255 255 255
415.779 -81.8252 1406 255 255 255
303.739 79.6997 1439 255 255 255
263.137 108.677 1443 255 255 255
436.745 -196.337 1349 255 255 255
228.661 126.24 1448 255 255 255
-144.612 88.8572 1416 255 255 255
-192.336 48.5849 1391 255 255 255
-49.9505 131.763 1456 255 255 255
-255.905 -104.635 1428 255 255 255
406.298 -59.1496 1416 255 255 255
-244.28 -64.4639 1430 255 255 255
355.604 27.5067 1431 255 255 255
-250.054 -81.6656 1429 255 255 255
429.256 -93.2414 1315 255 255 255
37.0227 155.174 1457 255 255 255
8.0127 149.506 1459 255 255 255
432.51 -222.167 1371 255 255 255
-232.828 -35.8188 1432 255 255 255
-83.5942 124.302 1436 255 255 255
274.574 102.821 1441 255 255 255
-261.444 -127.472 1425 255 255 255
-61.2134 131.066 1448 255 255 255
-55.6353 131.504 1453 255 255 255
298.026 85.5207 1440 255 255 255
437.246 -202.139 1350 255 255 255
-124.173 96.1552 1442 255 255 255
-32.6576 137.936 1460 255 255 255
400.382 -41.8228 1417 255 255 255
432.698 -104.887 1325 255 255 255
-15.2284 143.763 1460 255 255 255
394.813 -30.3012 1419 255 255 255
361.373 21.7142 1430 255 255 255
-255.857 -98.8838 1428 255 255 255
411.916 -70.664 1414 255 255 255
378.193 -1.44662 1425 255 255 255
-238.701 -47.306 1432 255 255 255
31.2388 155.271 1458 255 255 255
292.113 91.2837 1440 255 255 255
-266.886 -167.392 1420 255 255 255
217.371 132.241 1451 255 255 255
-266.803 -161.619 1420 255 255 255
326.666 62.2593 1435 255 255 255
-118.343 101.822 1441 255 255 255
389.259 -18.7689 1421 255 255 255
-95.1055 118.682 1437 255 255 255
2.20417 149.504 1459 255 255 255
-112.367 107.333 1438 255 255 255
-250.017 -75.9241 1429 255 255 255
-244.252 -58.7277 1430 255 255 255
-261.566 -121.8 1426 255 255 255
320.94 68.0654 1436 255 255 255
246.008 120.401 1446 255 255 255
-267.16 -173.292 1421 255 255 255
406.255 -53.3731 1416 255 255 255
332.629 56.4963 1435 255 255 255
338.369 50.6932 1434 255 255 255
-266.912 -155.961 1421 255 255 255
25.4305 155.263 1458 255 255 255
436.126 -215.495 1364 255 255 255
-106.492 112.901 1436 255 255 255
344.115 44.8931 1433 255 255 255
-77.8292 129.939 1435 255 255 255
315.218 73.8756 1437 255 255 255
257.624 114.601 1445 255 255 255
429.111 -83.4543 1333 255 255 255
-267.437 -179.206 1422 255 255 255
430.481 -88.0865 1319 255 255 255
420.066 -81.5419 1400 255 255 255
383.72 -7.22385 1423 255 255 255
-21.0401 143.768 1460 255 255 255
367.406 15.9339 1430 255 255 255
286.41 97.1119 1441 255 255 255
349.867 39.0955 1432 255 255 255
-38.4705 137.945 1460 255 255 255
-255.99 -93.2003 1429 255 255 255
234.73 126.381 1449 255 255 255
-267.023 -150.301 1422 255 255 255
269.069 108.731 1443 255 255 255
309.5 79.6902 1438 255 255 255
372.672 10.1251 1427 255 255 255
-261.691 -116.124 1427 255 255 255
-232.977 -30.1083 1433 255 255 255
60.2339 160.969 1456 255 255 255
416.898 -76.2878 1410 255 255 255
-249.983 -70.1851 1429 255 255 255
223.122 132.203 1450 255 255 255
-129.766 96.0443 1440 255 255 255
-227.283 -18.6451 1434 255 255 255
412.154 -64.933 1415 255 255 255
-205.602 32.2626 1405 255 255 255
-3.60685 149.607 1460 255 255 255
355.625 33.3001 1431 255 255 255
423.099 -81.026 1390 255 255 255
54.425 160.952 1456 255 255 255
-266.673 -230.156 1413 255 255 255
19.6363 155.363 1459 255 255 255
-66.5385 135.932 1438 255 255 255
400.635 -36.0769 1418 255 255 255
77.7794 161.251 1458 255 255 255
-267.136 -144.637 1423 255 255 255
83.605 161.275 1458 255 255 255
-255.768 -87.3895 1428 255 255 255
71.9562 161.229 1458 255 255 255
-244.227 -52.9935 1430 255 255 255
434.284 -228.761 1376 255 255 255
89.4333 161.301 1458 255 255 255
280.514 102.875 1441 255 255 255
425.442 -80.3935 1378 255 255 255
-238.848 -41.5985 1433 255 255 255
66.1353 161.209 1458 255 255 255
395.071 -24.5456 1420 255 255 255
-160.744 82.8027 1408 255 255 255
48.6178 160.937 1456 255 255 255
-89.4505 124.495 1438 255 255 255
95.2644 161.328 1458 255 255 255
-261.636 -110.367 1427 255 255 255
378.195 4.33581 1425 255 255 255
-199.371 43.3531 1401 255 255 255
-181.937 65.5017 1397 255 255 255
-44.2542 137.861 1459 255 255 255
106.863 161.277 1457 255 255 255
361.39 27.5065 1430 255 255 255
101.099 161.357 1458 255 255 255
406.503 -47.632 1417 255 255 255
439.697 -208.88 1357 255 255 255
434.813 -98.6804 1314 255 255 255
303.998 85.569 1440 255 255 255
42.8122 160.924 1456 255 255 255
-268.281 -185.524 1426 255 255 255
-267.253 -138.97 1424 255 255 255
-150.616 89.0701 1419 255 255 255
389.522 -13.0027 1422 255 255 255
-176.575 71.1639 1399 255 255 255
251.929 120.456 1446 255 255 255
-9.41948 149.609 1460 255 255 255
-26.871 143.872 1461 255 255 255
-124.11 101.844 1441 255 255 255
112.7 161.309 1457 255 255 255
-100.916 118.786 1438 255 255 255
-249.952 -64.4482 1429 255 255 255
240.483 126.35 1448 255 255 255
298.076 91.3343 1440 255 255 255
13.8349 155.465 1460 255 255 255
-187.692 59.9832 1398 255 255 255
-255.728 -81.6468 1428 255 255 255
-261.584 -104.613 1427 255 255 255
-267.185 -133.205 1424 255 255 255
124.213 161.158 1455 255 255 255
-61.186 136.766 1447 255 255 255
228.874 132.167 1449 255 255 255
442.541 -190.863 1349 255 255 255
-212.781 21.1939 1415 255 255 255
263.557 114.656 1445 255 255 255
-49.997 137.684 1457 255 255 255
118.54 161.343 1457 255 255 255
-135.254 95.8677 1437 255 255 255
434.726 -93.2544 1314 255 255 255
37.0334 161.022 1457 255 255 255
-72.2234 135.854 1437 255 255 255
-118.284 107.505 1440 255 255 255
412.396 -59.1958 1416 255 255 255
338.403 56.4929 1434 255 255 255
211.962 138.319 1454 255 255 255
332.666 62.2982 1435 255 255 255
-112.312 113.002 1437 255 255 255
442.716 -196.514 1349 255 255 255
383.987 -1.44631 1424 255 255 255
367.42 21.7295 1430 255 255 255
344.146 50.6907 1433 255 255 255
326.934 68.1071 1436 255 255 255
275.009 108.787 1443 255 255 255
-83.7303 130.23 1438 255 255 255
-55.6872 137.413 1454 255 255 255
8.02052 155.462 1460 255 255 255
-267.307 -127.535 1425 255 255 255
-15.2323 149.612 1460 255 255 255
-171.57 77.0058 1404 255 255 255
292.368 97.1645 1441 255 255 255
349.895 44.8914 1432 255 255 255
417.726 -70.6702 1413 255 255 255
321.206 73.9199 1437 255 255 255
-233.291 -24.4077 1435 255 255 255
400.893 -30.324 1419 255 255 255
438.558 -222.362 1371 255 255 255
-238.998 -35.8843 1434 255 255 255
-220.517 4.27249 1428 255 255 255
-32.6883 143.88 1461 255 255 255
-244.546 -47.327 1432 255 255 255
-255.69 -75.9065 1428 255 255 255
-261.717 -98.9314 1428 255 255 255
-249.923 -58.7135 1429 255 255 255
-227.594 -12.9283 1436 255 255 255
438.545 -104.981 1325 255 255 255
443.224 -202.321 1350 255 255 255
31.2478 161.123 1458 255 255 255
395.333 -18.7826 1421 255 255 255
355.65 39.0945 1431 255 255 255
315.483 79.7371 1438 255 255 255
406.755 -41.8843 1418 255 255 255
429.575 -80.1112 1372 255 255 255
-272.75 -167.477 1420 255 255 255
-272.838 -173.258 1420 255 255 255
373.204 15.9343 1429 255 255 255
-95.2592 124.603 1439 255 255 255
-272.665 -161.701 1420 255 255 255
246.235 126.32 1447 255 255 255
2.20634 155.46 1460 255 255 255
-267.432 -121.86 1426 255 255 255
217.725 138.279 1453 255 255 255
257.859 120.513 1446 255 255 255
-273.121 -179.171 1421 255 255 255
309.764 85.559 1439 255 255 255
286.662 103.001 1442 255 255 255
389.789 -7.22882 1423 255 255 255
-106.663 118.809 1438 255 255 255
-272.776 -156.041 1421 255 255 255
434.646 -83.4656 1332 255 255 255
-261.67 -93.18 1428 255 255 255
-38.4802 143.791 1460 255 255 255
422.402 -76.2412 1408 255 255 255
412.643 -53.4526 1417 255 255 255
378.731 10.1326 1427 255 255 255
25.4553 161.225 1459 255 255 255
-129.88 101.868 1441 255 255 255
361.664 33.323 1431 255 255 255
-255.656 -70.1689 1428 255 255 255
436.298 -88.1657 1319 255 255 255
234.948 132.315 1450 255 255 255
-21.0601 149.719 1461 255 255 255
-273.407 -185.098 1422 255 255 255
269.498 114.713 1445 255 255 255
-272.889 -150.377 1422 255 255 255
304.048 91.3859 1440 255 255 255
-267.56 -116.181 1427 255 255 255
442.48 -215.844 1365 255 255 255
-272.341 -230.111 1412 255 255 255
-124.047 107.529 1440 255 255 255
-78.0652 136.062 1439 255 255 255
-141.015 95.8921 1437 255 255 255
418.263 -64.9846 1415 255 255 255
367.437 27.5258 1430 255 255 255
-3.61024 155.567 1461 255 255 255
-261.626 -87.4316 1428 255 255 255
384.258 4.33932 1425 255 255 255
206.252 144.224 1455 255 255 255
-194.706 54.8056 1408 255 255 255
-118.143 113.105 1438 255 255 255
223.486 138.24 1452 255 255 255
-273.005 -144.71 1423 255 255 255
-272.269 -235.766 1411 255 255 255
280.959 108.843 1443 255 255 255
-255.445 -64.3882 1427 255 255 255
-250.247 -53.0547 1431 255 255 255
54.4787 166.917 1457 255 255 255
19.6555 161.329 1460 255 255 255
-66.648 141.889 1440 255 255 255
-244.868 -41.646 1434 255 255 255
95.293 167.192 1458 255 255 255
-239.317 -30.1844 1436 255 255 255
60.3347 167.049 1458 255 255 255
407.012 -36.1299 1419 255 255 255
344.181 56.4901 1433 255 255 255
77.856 167.227 1459 255 255 255
-267.504 -110.421 1427 255 255 255
-89.5958 130.432 1440 255 255 255
83.6874 167.252 1459 255 255 255
72.0272 167.204 1459 255 255 255
-233.607 -18.6919 1437 255 255 255
401.437 -24.5812 1421 255 255 255
89.5215 167.278 1459 255 255 255
66.2005 167.183 1459 255 255 255
440.291 -98.6953 1313 255 255 255
101.129 167.222 1458 255 255 255
298.335 97.2183 1441 255 255 255
395.6 -13.0121 1422 255 255 255
-44.2958 143.801 1460 255 255 255
349.927 50.6888 1432 255 255 255
433.354 -79.771 1365 255 255 255
48.6658 166.901 1457 255 255 255
412.604 -47.6692 1417 255 255 255
-26.8781 149.726 1461 255 255 255
-101.009 124.626 1439 255 255 255
338.677 62.3379 1435 255 255 255
252.161 126.378 1447 255 255 255
332.939 68.1496 1436 255 255 255
373.218 21.7299 1429 255 255 255
-227.906 -7.19589 1438 255 255 255
-273.124 -139.04 1424 255 255 255
-61.2017 142.562 1447 255 255 255
-156.869 89.4097 1424 255 255 255
106.968 167.254 1458 255 255 255
440.677 -229.128 1377 255 255 255
355.678 44.8903 1431 255 255 255
240.706 132.282 1449 255 255 255
42.8545 166.887 1457 255 255 255
327.205 73.9652 1437 255 255 255
-9.42844 155.569 1461 255 255 255
-261.585 -81.6861 1428 255 255 255
263.797 120.572 1446 255 255 255
-167.357 83.299 1416 255 255 255
112.811 167.287 1458 255 255 255
-112.414 118.833 1438 255 255 255
446.038 -209.222 1358 255 255 255
321.476 79.785 1438 255 255 255
118.576 167.208 1457 255 255 255
13.8484 161.434 1461 255 255 255
-50.0441 143.617 1458 255 255 255
390.06 -1.44703 1424 255 255 255
-267.637 -104.738 1428 255 255 255
124.336 167.13 1456 255 255 255
292.625 103.057 1442 255 255 255
-55.7014 143.236 1454 255 255 255
440.538 -93.3395 1314 255 255 255
-273.246 -133.366 1425 255 255 255
418.509 -59.2429 1416 255 255 255
229.247 138.202 1451 255 255 255
212.163 144.28 1455 255 255 255
361.689 39.1214 1431 255 255 255
423.542 -70.6773 1412 255 255 255
37.07 166.99 1458 255 255 255
379.006 15.9349 1428 255 255 255
-255.595 -58.6999 1428 255 255 255
443.403 -104.839 1322 255 255 255
315.752 85.6093 1439 255 255 255
427.295 -76.087 1404 255 255 255
275.448 114.772 1445 255 255 255
448.857 -191.179 1350 255 255 255
-72.3926 141.907 1440 255 255 255
-83.8674 136.177 1440 255 255 255
-207.664 38.255 1419 255 255 255
-15.2469 155.572 1461 255 255 255
-261.547 -75.9431 1428 255 255 255
8.02836 161.431 1461 255 255 255
-32.7193 149.836 1462 255 255 255
-267.587 -98.9802 1428 255 255 255
-260.962 -70.055 1425 255 255 255
407.273 -30.3685 1420 255 255 255
-273.371 -127.689 1426 255 255 255
-239.472 -24.4522 1437 255 255 255
-221.601 10.0294 1435 255 255 255
-278.427 -167.446 1419 255 255 255
-278.516 -173.226 1419 255 255 255
-214.295 27.0389 1425 255 255 255
310.031 91.4387 1440 255 255 255
412.86 -41.917 1418 255 255 255
-123.9 113.13 1438 255 255 255
-278.609 -179.012 1419 255 255 255
-245.192 -35.9503 1436 255 255 255
-129.905 107.629 1441 255 255 255
-183.654 71.7479 1410 255 255 255
-233.762 -12.9516 1438 255 255 255
449.368 -196.984 1351 255 255 255
401.703 -18.8097 1422 255 255 255
31.2787 167.094 1459 255 255 255
-250.749 -47.4147 1434 255 255 255
-278.705 -184.804 1419 255 255 255
286.918 108.901 1443 255 255 255
-95.4139 130.544 1441 255 255 255
-135.937 102.105 1444 255 255 255
367.716 33.3463 1431 255 255 255
-278.536 -161.785 1420 255 255 255
-106.762 124.649 1439 255 255 255
258.096 126.438 1447 255 255 255
444.946 -222.721 1372 255 255 255
-273.307 -121.922 1426 255 255 255
-201.523 49.4767 1416 255 255 255
384.803 10.1403 1427 255 255 255
217.931 144.238 1454 255 255 255
246.634 132.342 1449 255 255 255
2.20854 161.429 1461 255 255 255
-267.539 -93.2259 1428 255 255 255
396.149 -7.23895 1424 255 255 255
304.313 97.2733 1441 255 255 255
-278.649 -156.122 1421 255 255 255
-21.0659 155.577 1461 255 255 255
440.52 -83.5406 1332 255 255 255
-38.5168 149.743 1461 255 255 255
418.759 -53.4949 1417 255 255 255
269.743 120.632 1446 255 255 255
235.169 138.262 1451 255 255 255
-228.222 -1.44777 1440 255 255 255
344.46 62.3348 1434 255 255 255
338.719 68.1454 1435 255 255 255
355.711 50.6876 1431 255 255 255
373.497 27.5455 1430 255 255 255
25.4803 167.2 1460 255 255 255
350.207 56.5274 1433 255 255 255
332.984 73.9598 1436 255 255 255
450.217 -202.955 1353 255 255 255
-189.728 66.2753 1413 255 255 255
424.087 -64.9911 1414 255 255 255
442.466 -88.313 1320 255 255 255
-267.306 -87.4135 1427 255 255 255
-278.765 -150.455 1422 255 255 255
390.335 4.34287 1425 255 255 255
-118.251 118.94 1439 255 255 255
-273.438 -116.24 1427 255 255 255
206.308 150.093 1455 255 255 255
327.253 79.7783 1437 255 255 255
438.374 -79.6651 1362 255 255 255
-3.6112 161.43 1461 255 255 255
-278.206 -230.232 1412 255 255 255
