ply
format ascii 1.0
element vertex 1409
property float x
property float y
property float z
property uchar diffuse_red
property uchar diffuse_green
property uchar diffuse_blue
end_header
177.483 -74.9241 1417 255 255 255
183.987 -41.1903 1424 255 255 255
-201.067 56.5962 1454 255 255 255
171.851 -91.8986 1417 255 255 255
-87.2535 -208.007 1396 255 255 255
95.9944 -183.595 1382 255 255 255
-150.823 -171.333 1416 255 255 255
-215.289 -58.6444 1431 255 255 255
-209.445 -81.4798 1430 255 255 255
-110.694 -198.809 1410 255 255 255
-162.492 -160.34 1419 255 255 255
-216.884 -41.79 1442 255 255 255
-118.841 154.102 1444 255 255 255
-203.464 -98.5051 1428 255 255 255
13.1818 -217.35 1385 255 255 255
77.7568 155.395 1458 255 255 255
183.873 -46.8413 1423 255 255 255
123.936 -161.934 1386 255 255 255
-188.528 85.2072 1447 255 255 255
-47.6651 -216.958 1382 255 255 255
129.746 -156.727 1389 255 255 255
-182.116 96.4271 1442 255 255 255
-168.291 -154.776 1420 255 255 255
48.8328 167.474 1462 255 255 255
-185.713 -132.326 1423 255 255 255
106.526 137.593 1454 255 255 255
-206.628 44.9313 1452 255 255 255
89.2599 149.384 1456 255 255 255
118.408 -167.483 1386 255 255 255
-145.164 -177.006 1416 255 255 255
66.1807 161.319 1459 255 255 255
148.772 -136.721 1412 255 255 255
25.5756 173.662 1465 255 255 255
79.2117 -194.116 1378 255 255 255
68.0524 -199.207 1375 255 255 255
183.631 -52.4489 1421 255 255 255
-122.159 -193.457 1412 255 255 255
40.8725 -211.781 1385 255 255 255
135.875 -151.826 1395 255 255 255
151.98 90.6979 1445 255 255 255
112.718 -172.788 1384 255 255 255
-171.734 108.661 1452 255 255 255
-55.684 177.91 1451 255 255 255
-215.313 -64.3722 1431 255 255 255
177.258 -80.4759 1415 255 255 255
18.7218 -217.357 1385 255 255 255
-75.4345 -211.774 1384 255 255 255
-194.99 73.9112 1452 255 255 255
-174.101 -149.207 1421 255 255 255
-89.5205 170.426 1436 255 255 255
-139.311 -182.424 1414 255 255 255
57.2325 -205.328 1379 255 255 255
166.117 -108.812 1416 255 255 255
-212.467 27.5402 1452 255 255 255
-53.1226 -216.665 1380 255 255 255
160.369 -120.046 1415 255 255 255
90.3562 -188.876 1380 255 255 255
-77.7333 175.421 1430 255 255 255
31.3956 173.553 1464 255 255 255
183.521 -58.083 1420 255 255 255
-166.376 114.76 1456 255 255 255
171.76 -97.5016 1416 255 255 255
-209.478 -87.2106 1430 255 255 255
-101.409 165.392 1442 255 255 255
107.123 -178.21 1383 255 255 255
134.971 113.967 1448 255 255 255
100.806 143.495 1455 255 255 255
-130.571 148.573 1446 255 255 255
142.156 -146.986 1402 255 255 255
-201.089 62.4087 1454 255 255 255
-136.811 143.293 1451 255 255 255
-113.008 159.765 1443 255 255 255
54.6282 167.375 1461 255 255 255
-104.847 -204.05 1407 255 255 255
24.2623 -217.366 1385 255 255 255
-197.658 -115.58 1427 255 255 255
-215.189 -70.0531 1430 255 255 255
154.526 -131.181 1413 255 255 255
-93.2543 -208.937 1402 255 255 255
-203.36 -104.161 1427 255 255 255
140.654 108.126 1447 255 255 255
129.462 119.983 1451 255 255 255
-191.562 -126.738 1424 255 255 255
-133.57 -187.965 1413 255 255 255
-58.6508 -216.688 1380 255 255 255
-160.881 120.81 1459 255 255 255
183.154 -63.6212 1417 255 255 255
-180.051 -143.733 1423 255 255 255
157.652 84.8904 1444 255 255 255
46.3815 -211.646 1384 255 255 255
-143.095 137.976 1456 255 255 255
-212.479 33.3419 1452 255 255 255
-206.789 50.7695 1453 255 255 255
71.9562 161.229 1458 255 255 255
83.5235 155.311 1457 255 255 255
177.16 -86.075 1414 255 255 255
-116.443 -198.993 1411 255 255 255
-155.153 126.711 1460 255 255 255
-149.216 132.441 1459 255 255 255
-81.1605 -212.265 1387 255 255 255
123.847 125.938 1453 255 255 255
101.537 -183.629 1382 255 255 255
37.2342 173.563 1464 255 255 255
73.5061 -199.089 1374 255 255 255
-194.749 79.6104 1450 255 255 255
84.8567 -194.429 1380 255 255 255
-218.779 -1.462 1455 255 255 255
-124.718 154.243 1445 255 255 255
29.8037 -217.377 1385 255 255 255
-9.49131 180.031 1469 255 255 255
118.137 131.821 1454 255 255 255
62.5718 -204.756 1375 255 255 255
182.918 -69.1863 1415 255 255 255
-14.5317 -223.143 1386 255 255 255
-20.0492 -222.829 1384 255 255 255
148.389 -141.993 1408 255 255 255
-64.274 -217.027 1382 255 255 255
146.535 102.437 1448 255 255 255
-218.63 4.34837 1454 255 255 255
95.0798 149.41 1456 255 255 255
-8.98581 -223.139 1386 255 255 255
-156.534 -171.383 1416 255 255 255
-15.3592 180.158 1470 255 255 255
-25.5882 -222.839 1384 255 255 255
-218.332 10.1439 1452 255 255 255
166.035 -114.407 1415 255 255 255
-185.76 -138.052 1423 255 255 255
-3.63417 180.029 1469 255 255 255
-215.218 -75.7812 1430 255 255 255
-209.513 -92.9441 1430 255 255 255
-95.4004 170.692 1438 255 255 255
-162.427 -165.949 1418 255 255 255
189.289 -12.7639 1421 255 255 255
-127.839 -193.502 1412 255 255 255
-50.3037 179.364 1463 255 255 255
189.427 -18.4461 1422 255 255 255
-188.819 91.1252 1449 255 255 255
-3.44017 -223.136 1386 255 255 255
-31.1055 -222.689 1383 255 255 255
171.792 -103.173 1416 255 255 255
112.344 137.621 1454 255 255 255
-200.975 68.1763 1453 255 255 255
-21.2356 180.286 1471 255 255 255
-168.222 -160.389 1419 255 255 255
189.568 -24.1369 1423 255 255 255
160.293 -125.635 1414 255 255 255
-150.872 -177.055 1416 255 255 255
2.22286 180.029 1469 255 255 255
129.506 -161.973 1386 255 255 255
-83.6863 175.938 1434 255 255 255
189.419 -7.10002 1422 255 255 255
-212.494 39.1447 1452 255 255 255
123.886 -167.401 1385 255 255 255
-107.184 165.424 1442 255 255 255
189.151 -1.4254 1420 255 255 255
51.8465 -211.36 1382 255 255 255
43.0443 173.458 1463 255 255 255
2.10547 -223.136 1386 255 255 255
95.8204 -188.773 1379 255 255 255
135.33 -156.766 1389 255 255 255
-36.5629 -222.221 1380 255 255 255
189.711 -29.8364 1424 255 255 255
60.5002 167.508 1462 255 255 255
182.554 -74.6848 1412 255 255 255
-197.424 -121.143 1425 255 255 255
-218.338 15.9458 1452 255 255 255
118.276 -172.826 1384 255 255 255
-27.1205 180.417 1472 255 255 255
77.6727 161.03 1456 255 255 255
-174.028 -154.825 1420 255 255 255
35.346 -217.391 1385 255 255 255
-203.401 -109.89 1427 255 255 255
-99.0947 -209.422 1405 255 255 255
-206.809 56.5784 1453 255 255 255
177.315 -91.7987 1415 255 255 255
8.07997 180.031 1469 255 255 255
-221.83 -47.378 1436 255 255 255
-145.11 -182.602 1415 255 255 255
189.722 -35.5199 1424 255 255 255
-110.657 -204.381 1409 255 255 255
152.322 96.6742 1448 255 255 255
-69.8646 -217.212 1383 255 255 255
163.547 79.2007 1445 255 255 255
7.64556 -222.977 1385 255 255 255
-87.2259 -213.523 1395 255 255 255
-42.1194 -222.399 1381 255 255 255
-118.875 159.909 1444 255 255 255
141.486 -151.866 1395 255 255 255
-44.6469 180.084 1469 255 255 255
154.347 -136.663 1411 255 255 255
-215.099 -81.4547 1429 255 255 255
-38.838 180.315 1471 255 255 255
-221.541 -53.0506 1434 255 255 255
13.9279 179.912 1468 255 255 255
189.602 -41.1756 1423 255 255 255
106.627 143.523 1455 255 255 255
112.675 -178.248 1383 255 255 255
-218.195 21.7331 1451 255 255 255
89.2848 155.229 1456 255 255 255
-191.608 -132.466 1424 255 255 255
-33.0144 180.549 1473 255 255 255
-221.101 -58.6679 1431 255 255 255
-122.117 -199.037 1411 255 255 255
79.0693 -199.264 1375 255 255 255
-209.403 -98.6117 1429 255 255 255
13.1874 -222.982 1385 255 255 255
67.98 -204.484 1373 255 255 255
189.484 -46.8246 1422 255 255 255
-139.359 -188.146 1414 255 255 255
-47.6852 -222.579 1382 255 255 255
-179.973 -149.361 1422 255 255 255
-194.644 85.355 1449 255 255 255
-61.2022 182.89 1444 255 255 255
182.322 -80.2185 1410 255 255 255
-212.51 44.9488 1452 255 255 255
-66.7408 182.278 1439 255 255 255
90.3895 -194.462 1380 255 255 255
66.2459 167.298 1460 255 255 255
-89.4244 175.966 1434 255 255 255
48.8814 173.472 1463 255 255 255
40.8895 -217.407 1385 255 255 255
19.7818 179.918 1468 255 255 255
107.083 -183.666 1382 255 255 255
171.705 -108.77 1415 255 255 255
165.954 -119.998 1414 255 255 255
189.235 -52.4301 1420 255 255 255
-200.863 73.9381 1452 255 255 255
-101.229 170.842 1439 255 255 255
158.005 90.8494 1447 255 255 255
57.2556 -210.924 1379 255 255 255
-75.4109 -217.242 1383 255 255 255
140.877 114.074 1449 255 255 255
-220.971 -64.3531 1430 255 255 255
147.903 -147.131 1403 255 255 255
100.833 149.334 1455 255 255 255
18.7163 -222.827 1384 255 255 255
-206.689 62.3462 1452 255 255 255
-172.479 114.953 1458 255 255 255
-136.848 149.123 1451 255 255 255
-53.222 -222.6 1382 255 255 255
-178.078 108.995 1456 255 255 255
135.373 120.094 1452 255 255 255
83.3756 160.833 1454 255 255 255
188.855 -57.9804 1417 255 255 255
-218.355 27.5513 1452 255 255 255
177.346 -97.4645 1415 255 255 255
-166.869 120.928 1460 255 255 255
-72.3927 182.048 1437 255 255 255
-130.698 154.493 1447 255 255 255
160.218 -131.22 1413 255 255 255
-185.808 -143.782 1423 255 255 255
-133.618 -193.687 1413 255 255 255
-203.3 -115.542 1426 255 255 255
129.759 126.054 1454 255 255 255
-215.283 -87.2448 1430 255 255 255
-183.666 103.054 1454 255 255 255
-104.888 -209.76 1407 255 255 255
-55.7792 184.01 1453 255 255 255
25.6363 179.925 1468 255 255 255
146.664 108.304 1449 255 255 255
-143.23 143.922 1457 255 255 255
-113.12 165.687 1444 255 255 255
-93.2251 -214.478 1401 255 255 255
-161.248 126.921 1462 255 255 255
-197.47 -126.873 1425 255 255 255
-149.355 138.392 1460 255 255 255
101.353 -188.809 1379 255 255 255
71.9285 166.975 1457 255 255 255
188.476 -63.5085 1414 255 255 255
-162.249 -171.434 1416 255 255 255
24.2726 -222.998 1385 255 255 255
124.047 131.941 1455 255 255 255
-220.844 -70.0323 1429 255 255 255
-116.405 -204.57 1410 255 255 255
169.455 73.5029 1446 255 255 255
182.351 -85.8605 1410 255 255 255
-155.402 132.75 1462 255 255 255
54.6826 173.37 1462 255 255 255
-209.296 -104.274 1428 255 255 255
-200.338 79.5296 1448 255 255 255
-58.7181 -222.463 1381 255 255 255
46.4007 -217.268 1384 255 255 255
-212.529 50.7542 1452 255 255 255
-168.155 -166 1418 255 255 255
-156.585 -177.106 1416 255 255 255
-95.0991 175.873 1433 255 255 255
163.685 85.0332 1446 255 255 255
118.248 137.745 1455 255 255 255
129.453 -167.442 1385 255 255 255
-81.1353 -217.746 1386 255 255 255
73.4278 -204.363 1372 255 255 255
84.643 -199.44 1376 255 255 255
135.079 -162.014 1386 255 255 255
154.168 -142.134 1409 255 255 255
31.4701 179.812 1467 255 255 255
-218.368 33.3553 1452 255 255 255
-124.754 160.056 1445 255 255 255
187.833 -68.9168 1409 255 255 255
123.837 -172.866 1384 255 255 255
-189.373 97.1959 1453 255 255 255
-78.0853 181.946 1436 255 255 255
-206.43 68.061 1450 255 255 255
95.1062 155.255 1456 255 255 255
-150.816 -182.653 1415 255 255 255
-191.522 -138.1 1423 255 255 255
62.5969 -210.336 1375 255 255 255
152.455 102.536 1449 255 255 255
-174.079 -160.554 1420 255 255 255
-127.796 -199.084 1411 255 255 255
194.069 -12.7054 1414 255 255 255
140.817 -156.695 1388 255 255 255
-224.223 4.34429 1452 255 255 255
171.74 -114.444 1415 255 255 255
-224.531 -1.46146 1454 255 255 255
29.8163 -223.009 1385 255 255 255
112.451 143.551 1455 255 255 255
118.23 -178.287 1383 255 255 255
165.874 -125.584 1413 255 255 255
-215.168 -92.9157 1429 255 255 255
-107.069 170.994 1440 255 255 255
-64.3476 -222.812 1383 255 255 255
194.623 -18.4007 1418 255 255 255
95.9252 -194.497 1380 255 255 255
194.34 -7.07246 1416 255 255 255
-14.5274 -228.621 1385 255 255 255
-20.0578 -228.463 1384 255 255 255
177.38 -103.133 1415 255 255 255
-220.874 -75.7588 1429 255 255 255
-224.072 10.1412 1451 255 255 255
194.064 -1.41971 1414 255 255 255
-8.98308 -228.616 1385 255 255 255
-25.5992 -228.473 1384 255 255 255
-179.898 -154.985 1421 255 255 255
37.297 179.701 1466 255 255 255
187.325 -74.3403 1405 255 255 255
194.906 -24.0946 1420 255 255 255
89.1266 160.747 1453 255 255 255
-145.161 -188.329 1415 255 255 255
77.6426 166.769 1455 255 255 255
-3.43903 -228.613 1385 255 255 255
-31.1189 -228.321 1383 255 255 255
-212.404 56.5224 1451 255 255 255
147.207 -152.017 1396 255 255 255
51.8679 -216.975 1382 255 255 255
112.633 -183.705 1382 255 255 255
-203.203 -121.188 1425 255 255 255
182.64 -91.635 1412 255 255 255
-100.698 175.66 1431 255 255 255
-218.382 39.1603 1452 255 255 255
60.519 173.388 1462 255 255 255
-99.0639 -214.977 1404 255 255 255
-110.622 -209.952 1408 255 255 255
-83.7724 181.847 1435 255 255 255
106.655 149.362 1455 255 255 255
195.19 -29.8051 1422 255 255 255
160.031 -136.704 1411 255 255 255
2.10492 -228.613 1385 255 255 255
-209.191 -109.932 1427 255 255 255
-36.6051 -228.005 1381 255 255 255
-206.029 73.7111 1447 255 255 255
158.251 96.7686 1449 255 255 255
-224.077 15.9414 1451 255 255 255
-225.305 -7.29814 1459 255 255 255
35.3611 -223.023 1385 255 255 255
195.064 -35.4577 1421 255 255 255
-9.51379 186.328 1472 255 255 255
-87.2617 -219.196 1395 255 255 255
-69.9445 -223.001 1384 255 255 255
-197.379 -132.514 1424 255 255 255
-139.311 -193.736 1413 255 255 255
-185.728 -149.412 1422 255 255 255
-195.348 91.4719 1454 255 255 255
-118.993 165.837 1445 255 255 255
-122.077 -204.616 1410 255 255 255
7.64342 -228.45 1384 255 255 255
-89.1422 181.116 1429 255 255 255
43.1171 179.591 1465 255 255 255
169.596 79.3347 1447 255 255 255
-3.6427 186.326 1472 255 255 255
-42.168 -228.187 1382 255 255 255
-227.669 -47.3975 1436 255 255 255
78.9276 -204.393 1372 255 255 255
195.078 -41.1323 1421 255 255 255
-220.906 -81.4876 1429 255 255 255
106.889 -188.847 1379 255 255 255
67.9577 -209.904 1372 255 255 255
187.219 -79.9048 1404 255 255 255
-15.4061 186.585 1474 255 255 255
-94.2676 180.006 1420 255 255 255
90.1618 -199.474 1376 255 255 255
-227.372 -53.0725 1434 255 255 255
-50.4579 185.765 1467 255 255 255
83.2286 166.335 1451 255 255 255
2.2282 186.326 1472 255 255 255
-224.085 21.7421 1451 255 255 255
-215.206 -98.6505 1429 255 255 255
141.199 120.125 1452 255 255 255
194.956 -46.7754 1420 255 255 255
-172.753 120.966 1460 255 255 255
153.772 -147.383 1405 255 255 255
13.1837 -228.455 1384 255 255 255
171.657 -120.036 1414 255 255 255
-47.7403 -228.372 1383 255 255 255
135.59 126.084 1454 255 255 255
-21.3003 186.718 1475 255 255 255
-212.281 62.2844 1450 255 255 255
-136.886 154.958 1451 255 255 255
-178.481 115.069 1459 255 255 255
177.415 -108.805 1415 255 255 255
57.2792 -216.527 1379 255 255 255
-227.079 -58.7332 1432 255 255 255
-218.399 44.9667 1452 255 255 255
146.897 114.262 1451 255 255 255
163.938 90.9392 1448 255 255 255
194.563 -52.3379 1417 255 255 255
40.9069 -223.04 1385 255 255 255
-191.437 -143.732 1422 255 255 255
100.931 155.283 1456 255 255 255
129.879 131.972 1455 255 255 255
-143.17 149.675 1456 255 255 255
66.3119 173.289 1461 255 255 255
-133.573 -199.274 1412 255 255 255
-75.4427 -222.871 1383 255 255 255
-168.089 -171.608 1417 255 255 255
-162.302 -177.159 1416 255 255 255
193.896 -57.7964 1412 255 255 255
-99.324 178.897 1411 255 255 255
-130.735 160.315 1447 255 255 255
165.914 -131.26 1413 255 255 255
48.9306 179.484 1464 255 255 255
-167.25 127.046 1463 255 255 255
182.801 -97.3595 1413 255 255 255
-161.396 132.879 1463 255 255 255
-155.44 138.62 1462 255 255 255
8.10476 186.454 1473 255 255 255
-184.207 109.181 1458 255 255 255
-112.998 171.266 1442 255 255 255
135.024 -167.484 1385 255 255 255
18.7244 -228.462 1384 255 255 255
101.391 -194.393 1379 255 255 255
129.308 -172.783 1383 255 255 255
-156.527 -182.705 1415 255 255 255
124.163 137.87 1456 255 255 255
-226.787 -64.3797 1430 255 255 255
152.59 108.409 1450 255 255 255
-53.2836 -228.394 1383 255 255 255
-224.096 27.5436 1451 255 255 255
-174.01 -166.17 1419 255 255 255
140.556 -161.94 1385 255 255 255
-209.088 -115.586 1426 255 255 255
-149.496 144.356 1461 255 255 255
-27.2216 186.979 1477 255 255 255
-44.7833 186.509 1473 255 255 255
193.231 -63.2167 1407 255 255 255
-104.855 -215.324 1406 255 255 255
123.789 -178.329 1383 255 255 255
-203.249 -126.92 1425 255 255 255
-106.582 175.939 1433 255 255 255
187.381 -85.5857 1405 255 255 255
-116.367 -210.146 1409 255 255 255
95.003 160.885 1454 255 255 255
-33.115 186.989 1477 255 255 255
-221.095 -87.28 1430 255 255 255
-201.337 85.7397 1455 255 255 255
-93.2635 -220.176 1401 255 255 255
118.359 143.68 1456 255 255 255
13.9801 186.458 1473 255 255 255
159.733 -142.075 1408 255 255 255
146.406 -156.738 1388 255 255 255
-38.9829 186.875 1476 255 255 255
-179.824 -160.607 1420 255 255 255
-189.93 103.302 1457 255 255 255
-150.869 -188.381 1415 255 255 255
-218.268 50.7395 1451 255 255 255
24.2657 -228.472 1384 255 255 255
-215.096 -104.315 1428 255 255 255
72.0002 172.956 1458 255 255 255
118.1 -183.613 1381 255 255 255
192.431 -68.5501 1401 255 255 255
84.4914 -204.574 1373 255 255 255
46.4204 -222.898 1384 255 255 255
175.399 73.5772 1447 255 255 255
73.4039 -209.78 1371 255 255 255
-58.786 -228.254 1382 255 255 255
-226.657 -70.0612 1429 255 255 255
169.621 85.1182 1447 255 255 255
198.658 -12.638 1406 255 255 255
-81.1695 -223.388 1386 255 255 255
-197.428 -138.248 1424 255 255 255
-127.844 -204.809 1411 255 255 255
54.7376 179.378 1463 255 255 255
158.389 102.636 1450 255 255 255
88.9693 166.246 1450 255 255 255
-124.878 165.989 1446 255 255 255
62.6228 -215.924 1375 255 255 255
112.558 149.495 1456 255 255 255
19.8558 186.463 1473 255 255 255
95.7531 -199.655 1377 255 255 255
177.326 -114.4 1414 255 255 255
-185.65 -155.038 1421 255 255 255
-206.628 79.7242 1451 255 255 255
-92.7724 182.731 1397 255 255 255
198.937 -7.03495 1408 255 255 255
-145.11 -193.925 1414 255 255 255
-224.263 33.3689 1452 255 255 255
171.575 -125.624 1413 255 255 255
198.653 -1.41201 1406 255 255 255
112.428 -188.887 1379 255 255 255
199.652 -18.3424 1413 255 255 255
153.159 -152.387 1399 255 255 255
-229.966 4.34334 1451 255 255 255
-88.5486 185.577 1419 255 255 255
29.8078 -228.484 1384 255 255 255
191.907 -73.9434 1397 255 255 255
182.965 -103.095 1414 255 255 255
-67.2275 189.391 1449 255 255 255
-230.282 -1.46084 1453 255 255 255
77.6133 172.505 1454 255 255 255
-64.3753 -228.446 1383 255 255 255
25.7147 186.345 1472 255 255 255
-195.785 97.4979 1457 255 255 255
200.084 -24.0354 1416 255 255 255
-72.8206 188.892 1445 255 255 255
-229.811 10.1387 1450 255 255 255
-105.278 179.439 1415 255 255 255
-14.5233 -234.098 1384 255 255 255
-221.132 -93.0183 1430 255 255 255
-20.0666 -234.105 1384 255 255 255
-218.139 56.5059 1450 255 255 255
165.721 -136.745 1411 255 255 255
-226.687 -75.7901 1429 255 255 255
187.813 -91.4072 1408 255 255 255
-61.6895 190.153 1455 255 255 255
-208.988 -121.235 1425 255 255 255
-8.98052 -234.093 1384 255 255 255
-25.5919 -233.947 1383 255 255 255
51.8899 -222.597 1382 255 255 255
164.079 96.7973 1449 255 255 255
-230.759 -7.28596 1456 255 255 255
106.758 155.313 1456 255 255 255
-83.6842 187.378 1433 255 255 255
-139.263 -199.325 1412 255 255 255
-191.49 -149.464 1422 255 255 255
200.376 -29.732 1418 255 255 255
-3.43801 -234.09 1384 255 255 255
-110.666 -215.674 1408 255 255 255
-99.034 -220.53 1403 255 255 255
-31.1101 -233.79 1382 255 255 255
-78.384 188.395 1441 255 255 255
-214.988 -109.976 1427 255 255 255
106.929 -194.432 1379 255 255 255
-118.948 171.54 1444 255 255 255
-203.156 -132.563 1424 255 255 255
31.5665 186.228 1471 255 255 255
-122.038 -210.193 1409 255 255 255
200.388 -35.3958 1418 255 255 255
-224.278 39.1764 1452 255 255 255
-229.816 15.9372 1450 255 255 255
2.10439 -234.09 1384 255 255 255
78.9593 -209.964 1372 255 255 255
147.03 120.157 1452 255 255 255
35.3509 -228.498 1384 255 255 255
-36.6213 -233.636 1381 255 255 255
60.5798 179.397 1463 255 255 255
-56.1053 190.916 1461 255 255 255
141.426 126.116 1454 255 255 255
-97.8792 181.848 1390 255 255 255
-87.236 -224.714 1394 255 255 255
159.323 -147.322 1404 255 255 255
175.424 79.36 1447 255 255 255
-69.9748 -228.641 1384 255 255 255
90.0659 -204.758 1374 255 255 255
192.073 -79.5918 1398 255 255 255
67.9858 -215.48 1372 255 255 255
-178.764 121.088 1461 255 255 255
200.403 -41.0605 1418 255 255 255
-162.243 -182.76 1415 255 255 255
-168.144 -177.339 1417 255 255 255
135.809 132.095 1456 255 255 255
134.874 -172.827 1383 255 255 255
152.727 114.294 1451 255 255 255
7.64696 -234.092 1384 255 255 255
140.499 -167.408 1384 255 255 255
130.001 137.902 1456 255 255 255
-226.562 -81.4643 1428 255 255 255
-173.942 -171.784 1418 255 255 255
83.2544 172.174 1451 255 255 255
-42.1562 -233.654 1381 255 255 255
199.995 -46.6278 1415 255 255 255
-173.147 127.085 1463 255 255 255
199.165 -52.0616 1409 255 255 255
129.258 -178.243 1382 255 255 255
-112.721 176.589 1438 255 255 255
-136.926 160.798 1451 255 255 255
-184.497 115.186 1460 255 255 255
37.4112 186.113 1470 255 255 255
177.365 -120.075 1414 255 255 255
100.96 161.135 1456 255 255 255
146.134 -161.984 1385 255 255 255
169.766 90.9672 1448 255 255 255
-218.013 62.2662 1449 255 255 255
-221.017 -98.6904 1429 255 255 255
-133.529 -204.86 1411 255 255 255
198.337 -57.4491 1403 255 255 255
-149.434 150.126 1460 255 255 255
-197.342 -143.885 1423 255 255 255
183.001 -108.765 1414 255 255 255
-179.752 -166.225 1419 255 255 255
-161.546 138.85 1464 255 255 255
-156.581 -188.436 1415 255 255 255
-233.677 -47.4506 1437 255 255 255
123.653 -183.656 1381 255 255 255
-143.308 155.639 1457 255 255 255
-201.785 91.7569 1458 255 255 255
171.495 -131.208 1412 255 255 255
57.2619 -221.976 1378 255 255 255
101.356 -199.838 1378 255 255 255
13.1801 -233.928 1383 255 255 255
-155.587 144.594 1463 255 255 255
-224.141 44.9541 1451 255 255 255
-167.518 133.101 1465 255 255 255
-229.983 21.7514 1451 255 255 255
124.28 143.811 1457 255 255 255
-47.7614 -234.012 1383 255 255 255
40.8951 -228.515 1384 255 255 255
-233.373 -53.132 1435 255 255 255
-190.227 109.293 1459 255 255 255
94.9008 166.504 1452 255 255 255
188.246 -97.2556 1411 255 255 255
-130.865 166.257 1448 255 255 255
43.2198 185.873 1468 255 255 255
158.529 108.515 1451 255 255 255
-75.4754 -228.507 1383 255 255 255
197.512 -62.7904 1397 255 255 255
152.109 -156.896 1389 255 255 255
118.391 149.526 1456 255 255 255
-185.574 -160.662 1420 255 255 255
66.3786 179.295 1462 255 255 255
-233.072 -58.7991 1433 255 255 255
117.8 -188.654 1377 255 255 255
165.412 -142.119 1408 255 255 255
-214.883 -115.631 1426 255 255 255
-150.923 -194.116 1415 255 255 255
-209.036 -126.969 1425 255 255 255
18.7193 -233.935 1383 255 255 255
-116.332 -215.721 1408 255 255 255
-104.899 -221.045 1406 255 255 255
192.515 -85.3726 1401 255 255 255
-87.5811 189.154 1403 255 255 255
-53.3072 -234.035 1383 255 255 255
-232.611 -64.4071 1430 255 255 255
-229.994 27.5553 1451 255 255 255
84.4639 -209.997 1372 255 255 255
-93.2362 -225.72 1400 255 255 255
-226.756 -87.2552 1429 255 255 255
73.4342 -215.353 1371 255 255 255
181.107 73.5506 1446 255 255 255
196.829 -68.1348 1392 255 255 255
112.59 155.344 1456 255 255 255
164.223 102.666 1450 255 255 255
-127.804 -210.392 1410 255 255 255
-191.409 -155.093 1421 255 255 255
-203.207 -138.299 1424 255 255 255
-196.09 103.48 1459 255 255 255
175.451 85.1453 1447 255 255 255
-145.061 -199.52 1413 255 255 255
-220.903 -104.358 1428 255 255 255
46.4406 -228.534 1384 255 255 255
203.188 -12.5708 1398 255 255 255
112.47 -194.473 1379 255 255 255
49.0472 185.762 1467 255 255 255
-207.514 85.8897 1457 255 255 255
95.6515 -204.944 1375 255 255 255
-224.161 50.7602 1451 255 255 255
24.2591 -233.945 1383 255 255 255
158.687 -152.323 1398 255 255 255
-124.917 171.816 1446 255 255 255
72.0728 178.95 1459 255 255 255
-58.812 -233.891 1382 255 255 255
-232.314 -70.042 1428 255 255 255
62.6038 -221.357 1374 255 255 255
-81.2047 -229.037 1386 255 255 255
-111.817 180.871 1426 255 255 255
89.0583 172.201 1451 255 255 255
177.281 -125.665 1413 255 255 255
183.04 -114.439 1414 255 255 255
203.765 -7.00748 1402 255 255 255
204.356 -18.2583 1406 255 255 255
-218.19 68.1144 1450 255 255 255
203.473 -1.40633 1400 255 255 255
-236.034 -7.26892 1452 255 255 255
196.573 -73.6 1390 255 255 255
188.548 -103.058 1413 255 255 255
-83.4216 192.494 1428 255 255 255
-235.87 -1.45923 1451 255 255 255
204.946 -23.9425 1410 255 255 255
171.416 -136.789 1411 255 255 255
77.6383 178.361 1454 255 255 255
-230.165 33.383 1452 255 255 255
-118.738 176.995 1441 255 255 255
-139.218 -204.912 1411 255 255 255
-235.708 4.34243 1450 255 255 255
-50.7503 192.727 1475 255 255 255
29.8212 -234.126 1384 255 255 255
-197.257 -149.519 1422 255 255 255
192.959 -91.1802 1404 255 255 255
169.913 96.8271 1449 255 255 255
106.969 -200.023 1379 255 255 255
141.556 132.037 1455 255 255 255
147.266 126.15 1454 255 255 255
-64.4505 -234.257 1384 255 255 255
-232.183 -75.7162 1427 255 255 255
-226.794 -92.9918 1429 255 255 255
140.443 -172.873 1383 255 255 255
152.865 120.19 1452 255 255 255
54.8681 185.653 1466 255 255 255
134.821 -178.288 1382 255 255 255
-173.876 -177.395 1417 255 255 255
-168.082 -182.946 1416 255 255 255
205.392 -29.6384 1413 255 255 255
135.842 137.935 1456 255 255 255
51.9125 -228.225 1382 255 255 255
-214.93 -121.368 1426 255 255 255
-110.633 -221.247 1407 255 255 255
145.969 -167.333 1383 255 255 255
-20.0611 -239.582 1383 255 255 255
-14.5298 -239.747 1384 255 255 255
106.936 161.387 1458 255 255 255
-213.096 79.9748 1455 255 255 255
-179.683 -171.841 1418 255 255 255
129.116 -183.567 1380 255 255 255
-162.299 -188.492 1415 255 255 255
164.987 -147.367 1404 255 255 255
-8.97804 -239.569 1383 255 255 255
-235.712 10.1431 1450 255 255 255
-99.0759 -226.244 1403 255 255 255
-25.6035 -239.592 1383 255 255 255
-122.087 -215.922 1409 255 255 255
-202.096 97.7342 1460 255 255 255
205.404 -35.2842 1413 255 255 255
-179.049 127.126 1463 255 255 255
78.9344 -215.384 1371 255 255 255
-9.5881 193.699 1483 255 255 255
-209.086 -132.707 1425 255 255 255
-109.738 183.098 1399 255 255 255
-220.793 -110.02 1427 255 255 255
90.0366 -210.186 1373 255 255 255
-3.43694 -239.566 1383 255 255 255
130.123 143.845 1457 255 255 255
-184.79 121.211 1462 255 255 255
-31.1468 -239.605 1383 255 255 255
151.827 -162.148 1386 255 255 255
-230.022 39.1659 1451 255 255 255
204.418 -46.3486 1406 255 255 255
205.273 -40.9021 1412 255 255 255
203.273 -51.6747 1398 255 255 255
-173.425 133.142 1465 255 255 255
181.258 79.3861 1447 255 255 255
-185.501 -166.282 1419 255 255 255
-167.559 138.986 1465 255 255 255
158.671 114.405 1452 255 255 255
-87.2111 -230.231 1393 255 255 255
196.884 -79.2794 1392 255 255 255
-156.527 -194.035 1414 255 255 255
35.3667 -234.141 1384 255 255 255
67.9155 -220.741 1370 255 255 255
123.339 -188.698 1377 255 255 255
2.10246 -239.393 1382 255 255 255
-36.6113 -239.101 1380 255 255 255
-70.0059 -234.287 1384 255 255 255
-155.628 150.477 1463 255 255 255
-190.527 115.304 1461 255 255 255
-235.717 15.9443 1450 255 255 255
124.313 149.662 1457 255 255 255
-161.698 144.833 1465 255 255 255
-133.486 -210.444 1410 255 255 255
100.99 166.993 1456 255 255 255
-203.118 -143.939 1423 255 255 255
182.95 -120.031 1413 255 255 255
101.322 -205.281 1377 255 255 255
-137.061 166.758 1452 255 255 255
-143.349 161.504 1457 255 255 255
202.422 -57.0203 1392 255 255 255
-78.5748 194.621 1444 255 255 255
-232.217 -81.4419 1427 255 255 255
-149.578 156.107 1461 255 255 255
175.6 90.9961 1448 255 255 255
157.598 -156.829 1388 255 255 255
83.3386 178.142 1452 255 255 255
7.63944 -239.395 1382 255 255 255
-42.1448 -239.119 1380 255 255 255
177.198 -131.251 1412 255 255 255
-191.331 -160.718 1420 255 255 255
188.719 -108.803 1414 255 255 255
117.758 -194.093 1376 255 255 255
164.368 108.547 1451 255 255 255
57.3284 -227.754 1379 255 255 255
-226.834 -98.7314 1429 255 255 255
60.7243 185.673 1466 255 255 255
-150.872 -199.716 1414 255 255 255
-207.833 91.8543 1459 255 255 255
193.543 -97.0836 1408 255 255 255
-130.906 172.094 1448 255 255 255
118.506 155.484 1457 255 255 255
-235.726 21.7459 1450 255 255 255
13.1767 -239.4 1382 255 255 255
171.097 -142.164 1408 255 255 255
40.9133 -234.158 1384 255 255 255
-230.04 44.973 1451 255 255 255
202.008 -62.4545 1389 255 255 255
-47.7485 -239.486 1382 255 255 255
-196.396 109.482 1461 255 255 255
-239.535 -47.4711 1437 255 255 255
-73.2496 195.807 1453 255 255 255
-224.208 62.3776 1451 255 255 255
-75.4543 -233.981 1382 255 255 255
95.0612 172.587 1454 255 255 255
-214.829 -127.019 1425 255 255 255
197.339 -85.0383 1395 255 255 255
-218.82 74.1257 1454 255 255 255
-239.223 -53.1551 1435 255 255 255
-116.379 -221.451 1408 255 255 255
-220.684 -115.678 1426 255 255 255
-104.868 -226.611 1405 255 255 255
-87.4256 194.413 1400 255 255 255
84.4987 -215.576 1372 255 255 255
-197.174 -155.149 1421 255 255 255
-67.7153 196.59 1459 255 255 255
112.431 -199.92 1378 255 255 255
-145.014 -205.112 1412 255 255 255
164.211 -152.261 1397 255 255 255
18.7144 -239.407 1382 255 255 255
170.061 102.698 1450 255 255 255
73.3581 -220.61 1369 255 255 255
-127.764 -215.973 1409 255 255 255
-238.914 -58.8247 1433 255 255 255
-53.2928 -239.51 1382 255 255 255
95.6899 -210.53 1375 255 255 255
-93.21 -231.262 1399 255 255 255
-208.992 -138.352 1424 255 255 255
-118.283 182.051 1435 255 255 255
-82.926 197.02 1419 255 255 255
-232.416 -87.2312 1428 255 255 255
-124.87 177.526 1445 255 255 255
201.743 -67.9158 1387 255 255 255
181.285 85.1733 1447 255 255 255
112.777 161.42 1458 255 255 255
-238.441 -64.4351 1430 255 255 255
187.071 73.6265 1447 255 255 255
-235.899 27.5672 1451 255 255 255
66.537 185.568 1465 255 255 255
207.958 -12.5215 1392 255 255 255
46.4278 -234.009 1383 255 255 255
-226.718 -104.401 1428 255 255 255
140.389 -178.336 1382 255 255 255
62.631 -226.955 1374 255 255 255
145.911 -172.796 1382 255 255 255
-213.568 85.9819 1458 255 255 255
-173.812 -183.004 1416 255 255 255
182.993 -125.708 1413 255 255 255
24.2527 -239.417 1382 255 255 255
134.673 -183.614 1380 255 255 255
208.861 -18.1614 1398 255 255 255
147.402 132.072 1455 255 255 255
-179.615 -177.454 1417 255 255 255
-168.022 -188.551 1415 255 255 255
188.759 -114.479 1414 255 255 255
-81.1822 -234.524 1385 255 255 255
141.689 137.971 1456 255 255 255
-58.7962 -239.362 1381 255 255 255
153.11 126.185 1454 255 255 255
-202.41 103.731 1462 255 255 255
-45.2547 194.409 1488 255 255 255
208.702 -6.98497 1397 255 255 255
-139.173 -210.498 1410 255 255 255
151.656 -167.502 1384 255 255 255
209.467 -23.8158 1402 255 255 255
-238.138 -70.0725 1428 255 255 255
-230.219 50.8166 1452 255 255 255
106.934 -205.472 1378 255 255 255
177.117 -136.834 1411 255 255 255
-203.031 -149.574 1422 255 255 255
158.705 120.224 1452 255 255 255
193.992 -102.949 1411 255 255 255
-39.366 194.656 1490 255 255 255
128.882 -188.744 1377 255 255 255
-185.429 -171.9 1418 255 255 255
-162.243 -194.093 1414 255 255 255
135.971 143.88 1457 255 255 255
197.938 -90.889 1399 255 255 255
175.752 96.8579 1449 255 255 255
208.85 -1.40468 1398 255 255 255
201.77 -73.4691 1387 255 255 255
209.776 -29.4609 1404 255 255 255
-62.2625 197.78 1468 255 255 255
89.2712 178.415 1454 255 255 255
-241.784 -7.26686 1451 255 255 255
-235.913 33.3745 1451 255 255 255
-173.468 139.03 1465 255 255 255
72.2449 185.211 1462 255 255 255
157.305 -162.079 1385 255 255 255
-241.616 -1.45863 1450 255 255 255
130.158 149.697 1457 255 255 255
209.639 -35.048 1403 255 255 255
-179.337 133.185 1465 255 255 255
-220.578 -121.332 1425 255 255 255
170.779 -147.519 1405 255 255 255
29.8133 -239.603 1383 255 255 255
-185.084 127.255 1464 255 255 255
-241.45 4.34149 1449 255 255 255
-232.455 -92.9663 1428 255 255 255
-110.601 -226.818 1406 255 255 255
123.295 -194.138 1376 255 255 255
164.401 114.36 1451 255 255 255
25.9508 193.978 1485 255 255 255
-191.255 -166.341 1419 255 255 255
-156.474 -199.633 1413 255 255 255
-64.4331 -239.737 1383 255 255 255
-208.011 97.7708 1460 255 255 255
-122.051 -221.501 1408 255 255 255
107.042 167.368 1459 255 255 255
209.504 -40.6283 1402 255 255 255
78.9103 -220.804 1370 255 255 255
90.0082 -215.612 1372 255 255 255
51.9357 -233.862 1382 255 255 255
208.475 -46.0038 1395 255 255 255
-167.717 144.975 1466 255 255 255
-214.881 -132.759 1425 255 255 255
-190.829 121.335 1463 255 255 255
-238.003 -75.7492 1427 255 255 255
-99.0482 -231.8 1402 255 255 255
-161.742 150.726 1465 255 255 255
-224.698 68.3302 1454 255 255 255
124.348 155.518 1457 255 255 255
37.6786 193.347 1480 255 255 255
-14.526 -245.227 1383 255 255 255
-20.0704 -245.235 1383 255 255 255
-117.252 186.148 1422 255 255 255
-241.453 10.1408 1449 255 255 255
163.084 -156.764 1387 255 255 255
207.448 -51.3249 1388 255 255 255
-8.98205 -245.222 1383 255 255 255
67.9451 -226.323 1370 255 255 255
-25.6339 -245.423 1384 255 255 255
-133.445 -216.027 1409 255 255 255
-155.778 156.471 1464 255 255 255
43.4997 192.969 1477 255 255 255
101.362 -210.876 1377 255 255 255
-226.763 -110.143 1428 255 255 255
-196.571 115.424 1462 255 255 255
-208.901 -143.994 1423 255 255 255
-3.43847 -245.219 1383 255 255 255
202.09 -79.1387 1389 255 255 255
-87.1873 -235.748 1392 255 255 255
117.803 -199.675 1376 255 255 255
-31.1837 -245.437 1384 255 255 255
-242.622 -13.1193 1456 255 255 255
-197.094 -160.777 1420 255 255 255
35.3574 -239.618 1383 255 255 255
77.9312 184.856 1459 255 255 255
187.227 79.468 1448 255 255 255
-149.724 162.102 1462 255 255 255
-150.823 -205.315 1413 255 255 255
-219.453 80.1716 1458 255 255 255
-143.491 167.49 1458 255 255 255
181.44 91.0261 1448 255 255 255
2.1035 -245.042 1382 255 255 255
-230.401 56.6698 1453 255 255 255
-137.198 172.731 1453 255 255 255
-70.0377 -239.941 1384 255 255 255
182.907 -131.296 1412 255 255 255
188.8 -120.158 1414 255 255 255
170.212 108.58 1451 255 255 255
-236.091 39.2099 1452 255 255 255
-36.708 -245.275 1383 255 255 255
206.872 -56.7146 1384 255 255 255
194.168 -108.688 1412 255 255 255
-237.871 -81.4203 1426 255 255 255
198.681 -96.8436 1404 255 255 255
-241.626 15.9515 1450 255 255 255
176.787 -142.21 1408 255 255 255
-130.948 177.937 1448 255 255 255
7.64313 -245.044 1382 255 255 255
57.3956 -233.548 1380 255 255 255
-232.496 -98.7043 1428 255 255 255
-42.256 -245.294 1383 255 255 255
49.365 192.855 1476 255 255 255
118.703 161.565 1459 255 255 255
-213.896 91.9527 1460 255 255 255
-124.566 182.853 1441 255 255 255
101.299 173.33 1460 255 255 255
-202.45 109.597 1462 255 255 255
112.23 -205.068 1375 255 255 255
-78.7122 200.739 1446 255 255 255
-144.968 -210.704 1411 255 255 255
-202.946 -155.207 1421 255 255 255
40.9026 -239.636 1383 255 255 255
206.596 -62.164 1382 255 255 255
13.1829 -245.049 1382 255 255 255
145.855 -178.256 1381 255 255 255
-220.629 -127.071 1425 255 255 255
-116.346 -227.028 1407 255 255 255
170.098 -152.527 1399 255 255 255
84.4113 -220.839 1370 255 255 255
140.235 -183.663 1380 255 255 255
202.413 -84.8268 1391 255 255 255
-75.4886 -239.628 1382 255 255 255
-241.635 21.7557 1450 255 255 255
-104.839 -232.176 1404 255 255 255
-47.8399 -245.492 1384 255 255 255
151.596 -172.97 1383 255 255 255
147.438 137.912 1455 255 255 255
175.906 102.731 1450 255 255 255
-179.548 -183.065 1416 255 255 255
-173.75 -188.611 1415 255 255 255
95.7295 -216.123 1375 255 255 255
-226.493 -115.726 1426 255 255 255
153.146 132.018 1454 255 255 255
73.4436 -226.354 1370 255 255 255
134.429 -188.792 1377 255 255 255
-127.817 -221.711 1409 255 255 255
83.6534 184.63 1457 255 255 255
-214.784 -138.407 1424 255 255 255
141.725 143.817 1456 255 255 255
-185.358 -177.515 1417 255 255 255
158.85 126.134 1453 255 255 255
-168.082 -194.291 1415 255 255 255
157.242 -167.551 1384 255 255 255
18.7097 -244.879 1381 255 255 255
-236.272 45.0544 1453 255 255 255
-93.2515 -236.974 1399 255 255 255
-238.075 -87.2082 1427 255 255 255
128.93 -194.327 1377 255 255 255
-245.252 -53.2159 1436 255 255 255
-53.3948 -245.516 1384 255 255 255
206.472 -67.6483 1381 255 255 255
136.007 149.734 1457 255 255 255
95.3533 178.937 1458 255 255 255
-162.188 -199.693 1413 255 255 255
-191.181 -171.96 1418 255 255 255
-230.584 62.5328 1454 255 255 255
192.916 73.6524 1447 255 255 255
187.255 85.2612 1448 255 255 255
-225.191 74.309 1457 255 255 255
62.7958 -233.067 1377 255 255 255
106.977 -211.072 1378 255 255 255
164.55 120.26 1452 255 255 255
-245.912 -47.5914 1440 255 255 255
-139.131 -216.082 1409 255 255 255
188.71 -125.752 1413 255 255 255
-179.381 139.074 1465 255 255 255
-208.335 103.77 1462 255 255 255
46.449 -239.656 1383 255 255 255
213 -18.0385 1388 255 255 255
212.534 -12.4634 1385 255 255 255
-244.936 -58.892 1434 255 255 255
-208.811 -149.632 1422 255 255 255
194.346 -114.439 1413 255 255 255
-232.54 -104.446 1428 255 255 255
113.043 167.632 1461 255 255 255
162.899 -162.129 1385 255 255 255
-244.28 -64.4639 1430 255 255 255
213.469 -23.6382 1391 255 255 255
-185.255 133.229 1465 255 255 255
182.824 -136.88 1411 255 255 255
-241.812 27.5796 1451 255 255 255
130.195 155.554 1457 255 255 255
199.284 -102.768 1408 255 255 255
-167.648 150.771 1465 255 255 255
-173.631 145.02 1466 255 255 255
24.2465 -244.889 1381 255 255 255
-81.2191 -240.184 1385 255 255 255
-191.003 127.299 1464 255 255 255
-56.9702 199.779 1483 255 255 255
-196.876 -166.284 1418 255 255 255
123.342 -199.721 1376 255 255 255
213.451 -6.95759 1391 255 255 255
213.787 -29.2417 1393 255 255 255
181.597 96.8899 1449 255 255 255
203.029 -90.6636 1395 255 255 255
-156.423 -205.229 1412 255 255 255
-58.9513 -245.543 1384 255 255 255
-219.788 86.134 1460 255 255 255
213.492 -34.7621 1391 255 255 255
176.459 -147.567 1405 255 255 255
-196.748 121.378 1463 255 255 255
-243.969 -70.1038 1428 255 255 255
-161.787 156.624 1465 255 255 255
206.799 -73.2857 1383 255 255 255
170.364 114.474 1452 255 255 255
-236.293 50.8735 1453 255 255 255
213.508 -40.3255 1391 255 255 255
89.9151 -220.876 1370 255 255 255
78.9446 -226.387 1370 255 255 255
-247.534 -7.26487 1450 255 255 255
168.932 -157.04 1389 255 255 255
-122.103 -227.241 1408 255 255 255
-110.649 -232.554 1406 255 255 255
-247.361 -1.45803 1449 255 255 255
-238.115 -92.9418 1427 255 255 255
-247.709 -13.0799 1451 255 255 255
-226.543 -121.468 1426 255 255 255
-220.683 -132.813 1425 255 255 255
29.8273 -245.257 1383 255 255 255
-155.823 162.369 1464 255 255 255
212.604 -45.6923 1385 255 255 255
-214.08 97.8755 1461 255 255 255
-247.192 4.34068 1448 255 255 255
51.9219 -239.332 1381 255 255 255
117.678 -204.964 1374 255 255 255
101.478 -216.636 1378 255 255 255
-99.0216 -237.356 1401 255 255 255
124.555 161.601 1459 255 255 255
-64.5564 -245.749 1385 255 255 255
-202.863 -160.837 1420 255 255 255
-241.993 33.4123 1452 255 255 255
68.1243 -232.42 1373 255 255 255
-133.5 -221.766 1409 255 255 255
-150.775 -210.912 1412 255 255 255
-214.69 -144.051 1423 255 255 255
-243.831 -75.7831 1427 255 255 255
-202.63 115.545 1463 255 255 255
-232.423 -110.113 1427 255 255 255
211.856 -51.0495 1380 255 255 255
-143.536 173.37 1458 255 255 255
-14.5433 -251.07 1384 255 255 255
176.061 108.615 1451 255 255 255
-20.0943 -251.078 1384 255 255 255
89.6079 184.913 1459 255 255 255
207.129 -78.9415 1385 255 255 255
-149.871 168.109 1463 255 255 255
107.368 173.719 1463 255 255 255
-8.98624 -250.883 1383 255 255 255
-130.81 183.531 1446 255 255 255
-124.263 188.154 1437 255 255 255
193.076 79.4959 1448 255 255 255
-87.227 -241.437 1392 255 255 255
187.286 91.0571 1448 255 255 255
188.622 -131.342 1412 255 255 255
194.389 -120.116 1413 255 255 255
-25.6645 -251.271 1385 255 255 255
-247.366 10.1456 1449 255 255 255
145.8 -183.713 1380 255 255 255
-230.929 68.4529 1456 255 255 255
35.3484 -245.095 1382 255 255 255
-3.44003 -250.88 1383 255 255 255
151.537 -178.436 1382 255 255 255
199.607 -108.574 1410 255 255 255
203.647 -96.5355 1399 255 255 255
139.878 -188.705 1376 255 255 255
-137.337 178.718 1454 255 255 255
182.483 -142.258 1408 255 255 255
-31.2436 -251.466 1386 255 255 255
-179.484 -188.674 1415 255 255 255
147.476 143.757 1455 255 255 255
112.276 -210.657 1375 255 255 255
-225.532 80.2593 1459 255 255 255
-185.29 -183.128 1416 255 255 255
2.10465 -250.698 1382 255 255 255
157.179 -173.021 1383 255 255 255
-70.1715 -245.958 1386 255 255 255
211.571 -56.4914 1378 255 255 255
153.29 137.95 1455 255 255 255
-144.923 -216.293 1410 255 255 255
134.479 -194.376 1377 255 255 255
-173.813 -194.353 1415 255 255 255
-208.375 109.638 1462 255 255 255
66.9687 192.654 1474 255 255 255
-208.724 -155.267 1421 255 255 255
-36.8051 -251.482 1386 255 255 255
57.4219 -239.184 1380 255 255 255
-238.157 -98.6783 1427 255 255 255
158.997 132.056 1454 255 255 255
175.755 -152.578 1399 255 255 255
-243.696 -81.4567 1426 255 255 255
-167.907 -199.755 1413 255 255 255
-191.108 -177.578 1417 255 255 255
164.587 126.085 1452 255 255 255
118.901 167.667 1461 255 255 255
-242.176 39.2542 1453 255 255 255
7.65236 -250.882 1383 255 255 255
84.4481 -226.424 1370 255 255 255
-236.642 56.7722 1455 255 255 255
-247.543 15.9589 1450 255 255 255
162.715 -167.482 1383 255 255 255
141.861 149.772 1457 255 255 255
95.6308 -221.4 1373 255 255 255
-219.974 92.0523 1461 255 255 255
-226.437 -127.124 1425 255 255 255
-42.3677 -251.501 1386 255 255 255
181.756 102.765 1450 255 255 255
-116.397 -232.77 1407 255 255 255
128.885 -199.77 1376 255 255 255
207.46 -84.6159 1387 255 255 255
-196.8 -171.902 1417 255 255 255
40.9217 -245.291 1383 255 255 255
73.5837 -232.283 1372 255 255 255
-127.78 -227.294 1408 255 255 255
211.441 -61.9639 1377 255 255 255
-220.584 -138.463 1424 255 255 255
-162.135 -205.29 1412 255 255 255
13.1989 -250.888 1383 255 255 255
-232.309 -115.776 1426 255 255 255
-122.923 191.809 1421 255 255 255
-75.6877 -245.815 1385 255 255 255
136.139 155.699 1458 255 255 255
-179.55 145.067 1466 255 255 255
-185.427 139.215 1466 255 255 255
-47.9664 -251.704 1387 255 255 255
168.497 -162.18 1385 255 255 255
-191.179 133.275 1465 255 255 255
-173.677 150.921 1466 255 255 255
107.098 -216.837 1379 255 255 255
101.609 179.705 1464 255 255 255
192.972 85.2322 1447 255 255 255
-93.2273 -242.52 1398 255 255 255
170.518 120.38 1453 255 255 255
-139.188 -221.823 1409 255 255 255
-84.36 206.196 1443 255 255 255
123.211 -205.012 1374 255 255 255
-247.722 21.7807 1451 255 255 255
-196.927 127.344 1464 255 255 255
-214.598 -149.691 1422 255 255 255
-214.266 103.81 1462 255 255 255
-243.734 -87.1861 1426 255 255 255
-202.639 -166.346 1418 255 255 255
18.7458 -250.895 1383 255 255 255
-167.809 156.777 1466 255 255 255
-242.195 45.0744 1453 255 255 255
199.791 -114.319 1411 255 255 255
194.434 -125.797 1413 255 255 255
62.8245 -238.692 1377 255 255 255
211.314 -67.4305 1376 255 255 255
198.767 73.679 1447 255 255 255
204.413 -102.515 1404 255 255 255
188.536 -136.928 1411 255 255 255
-156.484 -210.973 1412 255 255 255
187.318 96.8559 1448 255 255 255
-238.202 -104.418 1427 255 255 255
130.411 161.638 1459 255 255 255
-53.536 -251.729 1387 255 255 255
46.4372 -245.134 1382 255 255 255
-74.2343 204.32 1472 255 255 255
-251.122 -53.2401 1436 255 255 255
182.144 -147.617 1405 255 255 255
217.538 -17.9548 1381 255 255 255
217.704 -23.4949 1382 255 255 255
176.097 114.432 1451 255 255 255
217.217 -12.4144 1379 255 255 255
208.093 -90.439 1391 255 255 255
218.03 -29.0646 1384 255 255 255
72.9123 192.81 1475 255 255 255
-161.944 162.637 1466 255 255 255
-250.798 -58.9189 1434 255 255 255
-231.436 74.4423 1459 255 255 255
-225.721 86.1692 1460 255 255 255
174.55 -157.092 1389 255 255 255
24.2757 -250.724 1382 255 255 255
218.316 -6.93526 1386 255 255 255
-250.127 -64.4933 1430 255 255 255
-236.831 62.6458 1456 255 255 255
-202.812 121.505 1464 255 255 255
113.31 173.873 1464 255 255 255
-81.3743 -246.207 1387 255 255 255
89.9543 -226.462 1370 255 255 255
218.043 -34.6013 1384 255 255 255
117.725 -210.551 1374 255 255 255
79.0951 -232.317 1372 255 255 255
-247.904 27.6112 1452 255 255 255
-59.1072 -251.756 1387 255 255 255
211.65 -73.0502 1378 255 255 255
-226.333 -132.775 1424 255 255 255
-150.622 -216.354 1410 255 255 255
-122.069 -232.822 1407 255 255 255
218.944 -1.39745 1390 255 255 255
-249.633 -70.0868 1427 255 255 255
-208.639 -160.899 1420 255 255 255
101.374 -221.926 1376 255 255 255
-232.198 -121.434 1425 255 255 255
217.901 -40.1101 1383 255 255 255
151.481 -183.899 1381 255 255 255
-155.977 168.386 1465 255 255 255
145.536 -188.895 1377 255 255 255
157.119 -178.489 1382 255 255 255
-133.462 -227.35 1408 255 255 255
158.927 137.8 1453 255 255 255
139.828 -194.145 1375 255 255 255
-252.497 -47.7453 1444 255 255 255
-208.561 115.588 1463 255 255 255
-220.487 -144.109 1423 255 255 255
-243.946 -92.9834 1427 255 255 255
-185.224 -188.739 1415 255 255 255
51.9462 -244.98 1381 255 255 255
-220.163 97.9815 1462 255 255 255
29.8417 -250.919 1383 255 255 255
-98.996 -242.911 1400 255 255 255
124.763 167.704 1461 255 255 255
217.131 -45.48 1378 255 255 255
68.2051 -238.202 1374 255 255 255
-190.903 -183.063 1415 255 255 255
-242.383 50.931 1454 255 255 255
95.8431 185.705 1465 255 255 255
-179.549 -194.418 1415 255 255 255
-252.933 4.33991 1447 255 255 255
153.329 143.796 1455 255 255 255
164.626 131.913 1452 255 255 255
-253.458 -7.26796 1450 255 255 255
-149.918 174.011 1463 255 255 255
181.916 108.651 1451 255 255 255
-253.282 -1.45855 1449 255 255 255
162.768 -173.075 1383 255 255 255
-253.637 -13.0857 1451 255 255 255
-130.765 189.246 1445 255 255 255
-238.083 -110.084 1426 255 255 255
-173.754 -199.96 1414 255 255 255
134.334 -199.676 1375 255 255 255
-137.288 184.465 1453 255 255 255
-64.7271 -251.967 1388 255 255 255
198.795 79.4698 1447 255 255 255
112.404 -216.411 1376 255 255 255
194.343 -131.389 1412 255 255 255
199.976 -120.075 1412 255 255 255
-196.726 -177.517 1416 255 255 255
204.891 -108.385 1407 255 255 255
193.137 91.0891 1448 255 255 255
147.719 149.811 1457 255 255 255
212.141 -78.7452 1381 255 255 255
-249.667 -75.8178 1427 255 255 255
216.521 -50.8485 1374 255 255 255
208.729 -96.2971 1395 255 255 255
-143.779 179.502 1460 255 255 255
188.319 -142.409 1409 255 255 255
-87.205 -246.957 1391 255 255 255
-248.089 33.4506 1453 255 255 255
-144.881 -221.882 1409 255 255 255
-167.971 -205.5 1413 255 255 255
-214.508 -155.329 1421 255 255 255
-68.8077 205.682 1482 255 255 255
181.418 -152.629 1399 255 255 255
168.429 -167.656 1384 255 255 255
170.439 126.123 1452 255 255 255
141.998 155.739 1458 255 255 255
128.748 -205.062 1374 255 255 255
-202.418 -171.845 1416 255 255 255
-237.022 68.5295 1457 255 255 255
-253.286 10.1505 1449 255 255 255
-214.454 109.755 1463 255 255 255
201.213 68.7352 1465 255 255 255
84.6092 -232.354 1372 255 255 255
-185.475 145.115 1466 255 255 255
57.4072 -244.651 1379 255 255 255
95.6725 -226.999 1373 255 255 255
-179.598 150.969 1466 255 255 255
216.228 -56.2685 1372 255 255 255
-231.627 80.348 1460 255 255 255
-162.199 -211.036 1412 255 255 255
-70.3571 -252.181 1389 255 255 255
-243.989 -98.7226 1427 255 255 255
187.611 102.8 1450 255 255 255
-247.935 39.2451 1452 255 255 255
-249.529 -81.4941 1426 255 255 255
-197.109 133.322 1465 255 255 255
107.77 180.231 1468 255 255 255
-232.251 -127.178 1425 255 255 255
174.101 -162.234 1385 255 255 255
136.272 161.678 1459 255 255 255
73.671 -238.062 1373 255 255 255
-127.836 -233.043 1408 255 255 255
-242.574 56.7974 1455 255 255 255
-191.487 139.358 1467 255 255 255
-226.39 -138.521 1424 255 255 255
212.482 -84.4058 1383 255 255 255
176.257 120.335 1452 255 255 255
119.182 173.91 1464 255 255 255
-226.068 92.1528 1462 255 255 255
-173.845 156.933 1467 255 255 255
106.989 -222.132 1377 255 255 255
123.261 -210.6 1374 255 255 255
-237.966 -115.745 1425 255 255 255
216.252 -61.7643 1372 255 255 255
-139.148 -227.409 1408 255 255 255
-208.556 -166.528 1419 255 255 255
84.6011 192.603 1473 255 255 255
-220.392 -149.752 1422 255 255 255
-156.436 -216.57 1411 255 255 255
-202.997 127.477 1465 255 255 255
-167.972 162.797 1467 255 255 255
198.825 85.2631 1447 255 255 255
209.367 -102.19 1399 255 255 255
205.225 -114.201 1409 255 255 255
-75.9973 -252.398 1390 255 255 255
194.255 -136.977 1411 255 255 255
200.164 -125.844 1413 255 255 255
-220.354 103.922 1463 255 255 255
187.835 -147.669 1405 255 255 255
62.8539 -244.325 1377 255 255 255
-247.955 45.0638 1452 255 255 255
181.954 114.47 1451 255 255 255
193.171 96.8899 1448 255 255 255
151.206 -189.086 1378 255 255 255
180.174 -157.145 1389 255 255 255
156.833 -183.688 1379 255 255 255
130.629 167.743 1461 255 255 255
-249.568 -87.2262 1426 255 255 255
145.59 -194.481 1377 255 255 255
-243.864 -104.392 1426 255 255 255
216.279 -67.2622 1372 255 255 255
-208.748 121.551 1464 255 255 255
164.554 137.651 1451 255 255 255
