ply
format ascii 1.0
element vertex 1393
property float x
property float y
property float z
property uchar diffuse_red
property uchar diffuse_green
property uchar diffuse_blue
end_header
207.315 -167.718 1381 255 255 255
-121.904 -204.326 1408 255 255 255
-121.952 -210.044 1408 255 255 255
53.11 -52.3702 1426 255 255 255
41.8071 -52.3978 1427 255 255 255
149.254 -91.9183 1419 255 255 255
36.139 -52.3939 1427 255 255 255
182.907 -131.296 1412 255 255 255
207.881 -246.002 1377 255 255 255
203.173 -258.204 1382 255 255 255
47.4764 -52.402 1427 255 255 255
115.391 -69.3468 1423 255 255 255
-121.964 -221.344 1407 255 255 255
30.4721 -52.3907 1427 255 255 255
-110.705 -272.154 1402 255 255 255
-121.944 -198.755 1409 255 255 255
-31.8275 -69.3536 1426 255 255 255
-116.363 -255.268 1404 255 255 255
-121.929 -226.918 1406 255 255 255
87.1004 -58.0405 1425 255 255 255
171.74 -114.444 1415 255 255 255
-3.51556 -58.0504 1427 255 255 255
126.701 -74.9976 1422 255 255 255
104.085 -63.6979 1424 255 255 255
24.8062 -52.3881 1427 255 255 255
-121.895 -232.491 1405 255 255 255
143.634 -86.2855 1420 255 255 255
-71.5178 -97.7273 1425 255 255 255
58.8198 -52.4122 1427 255 255 255
-65.8313 -92.035 1425 255 255 255
-20.5122 -63.724 1427 255 255 255
-43.1644 -75.0344 1426 255 255 255
-121.986 -193.183 1410 255 255 255
-88.3605 -114.517 1421 255 255 255
188.269 -136.734 1409 255 255 255
212.549 -184.078 1377 255 255 255
-116.571 -170.956 1415 255 255 255
198.429 -270.515 1387 255 255 255
-110.95 -154.047 1417 255 255 255
19.1411 -52.386 1427 255 255 255
-77.2095 -103.425 1425 255 255 255
-82.8483 -109.053 1424 255 255 255
-93.9212 -120.049 1419 255 255 255
13.4671 -52.3477 1426 255 255 255
212.711 -234.078 1373 255 255 255
177.365 -120.075 1414 255 255 255
-116.338 -260.851 1403 255 255 255
64.4942 -52.4181 1427 255 255 255
207.55 -162.357 1383 255 255 255
-105.114 -136.854 1416 255 255 255
-121.95 -238.233 1405 255 255 255
-60.1916 -86.4085 1426 255 255 255
138.014 -80.6514 1421 255 255 255
-122.029 -187.609 1411 255 255 255
92.7794 -58.0501 1425 255 255 255
-9.18002 -58.0511 1427 255 255 255
-110.684 -277.742 1401 255 255 255
-99.4722 -125.571 1417 255 255 255
-121.919 -243.81 1404 255 255 255
70.1705 -52.4247 1427 255 255 255
7.80694 -52.3466 1426 255 255 255
212.783 -178.739 1379 255 255 255
-54.5102 -80.7223 1426 255 255 255
121.08 -69.3619 1423 255 255 255
-37.4925 -69.358 1426 255 255 255
109.77 -63.7105 1424 255 255 255
217.171 -210.868 1368 255 255 255
-116.617 -165.37 1416 255 255 255
208.436 -252.231 1380 255 255 255
160.465 -97.51 1417 255 255 255
193.755 -142.258 1407 255 255 255
217.241 -205.421 1369 255 255 255
-110.919 -148.353 1417 255 255 255
182.993 -125.708 1413 255 255 255
166.084 -103.14 1416 255 255 255
-26.1787 -63.7267 1427 255 255 255
-122.073 -182.032 1412 255 255 255
-116.313 -266.435 1402 255 255 255
-127.22 -215.054 1403 255 255 255
-127.21 -203.793 1404 255 255 255
203.254 -152.198 1393 255 255 255
-127.26 -209.497 1404 255 255 255
203.718 -264.493 1385 255 255 255
-121.889 -249.386 1403 255 255 255
213.119 -240.078 1375 255 255 255
132.394 -75.0156 1422 255 255 255
75.8492 -52.4317 1427 255 255 255
-127.273 -220.767 1403 255 255 255
217.472 -200.12 1371 255 255 255
154.956 -91.9443 1419 255 255 255
2.14705 -52.3461 1426 255 255 255
198.811 -147.462 1402 255 255 255
-127.252 -198.237 1405 255 255 255
212.864 -173.264 1380 255 255 255
217.388 -194.525 1371 255 255 255
-14.8448 -58.0524 1427 255 255 255
98.4612 -58.0603 1425 255 255 255
-48.8326 -75.0406 1426 255 255 255
217.58 -216.787 1370 255 255 255
171.826 -108.847 1416 255 255 255
-110.664 -283.331 1400 255 255 255
207.936 -157.098 1386 255 255 255
-127.327 -226.487 1403 255 255 255
149.335 -86.309 1420 255 255 255
81.4731 -52.4025 1426 255 255 255
-122.118 -176.454 1413 255 255 255
-127.296 -192.68 1406 255 255 255
-3.5103 -52.3095 1425 255 255 255
198.821 -276.667 1389 255 255 255
208.539 -257.934 1380 255 255 255
-77.1952 -97.7407 1425 255 255 255
-116.664 -159.781 1417 255 255 255
-116.29 -272.019 1401 255 255 255
217.832 -222.568 1371 255 255 255
188.622 -131.342 1412 255 255 255
217.624 -189.211 1373 255 255 255
177.452 -114.481 1415 255 255 255
-105.237 -131.363 1418 255 255 255
-71.5556 -92.1112 1426 255 255 255
-121.947 -255.144 1403 255 255 255
41.8032 -46.7302 1427 255 255 255
36.1357 -46.7268 1427 255 255 255
-127.382 -232.215 1403 255 255 255
115.458 -63.7237 1424 255 255 255
-82.8902 -103.44 1425 255 255 255
47.4721 -46.734 1427 255 255 255
213.376 -245.924 1376 255 255 255
143.713 -80.6724 1421 255 255 255
-65.8667 -86.4185 1426 255 255 255
-31.8459 -63.73 1427 255 255 255
30.4694 -46.724 1427 255 255 255
-110.967 -142.764 1418 255 255 255
126.773 -69.3778 1423 255 255 255
-132.214 -214.033 1396 255 255 255
53.1425 -46.7384 1427 255 255 255
217.929 -228.198 1371 255 255 255
-88.5288 -109.07 1424 255 255 255
213.103 -167.907 1382 255 255 255
-127.348 -237.781 1402 255 255 255
-132.256 -208.503 1397 255 255 255
-20.5099 -58.0542 1427 255 255 255
24.8039 -46.7216 1427 255 255 255
87.1527 -52.4106 1426 255 255 255
104.146 -58.0712 1425 255 255 255
-94.0993 -114.617 1422 255 255 255
-43.1889 -69.4118 1427 255 255 255
-60.1825 -80.7308 1426 255 255 255
-122.165 -170.873 1414 255 255 255
-127.431 -187.254 1408 255 255 255
-132.269 -219.72 1396 255 255 255
193.979 -136.783 1409 255 255 255
58.8144 -46.7431 1427 255 255 255
-132.299 -202.972 1398 255 255 255
-9.16625 -52.3101 1425 255 255 255
137.995 -74.9816 1421 255 255 255
-132.248 -197.298 1398 255 255 255
183.08 -120.116 1414 255 255 255
-136.662 -212.248 1384 255 255 255
19.1393 -46.7197 1427 255 255 255
-121.92 -260.724 1402 255 255 255
-127.315 -243.346 1401 255 255 255
-99.6601 -120.155 1420 255 255 255
-136.706 -206.766 1385 255 255 255
204.118 -270.621 1387 255 255 255
-132.325 -225.413 1396 255 255 255
13.4658 -46.6856 1426 255 255 255
-136.719 -217.887 1384 255 255 255
64.4883 -46.7484 1427 255 255 255
-116.712 -154.189 1418 255 255 255
218.179 -184.156 1377 255 255 255
-136.751 -201.282 1386 255 255 255
-54.5024 -75.0477 1426 255 255 255
166.171 -97.5397 1417 255 255 255
160.55 -91.9065 1418 255 255 255
-127.478 -181.688 1409 255 255 255
-116.351 -277.802 1401 255 255 255
121.065 -63.6928 1423 255 255 255
-136.777 -223.533 1384 255 255 255
171.792 -103.173 1416 255 255 255
-14.8121 -52.2745 1424 255 255 255
-26.1574 -58.016 1426 255 255 255
-127.284 -248.911 1400 255 255 255
-132.389 -191.905 1400 255 255 255
-132.382 -231.113 1396 255 255 255
92.835 -52.4193 1426 255 255 255
154.931 -86.2726 1419 255 255 255
109.757 -58.0418 1424 255 255 255
213.343 -162.54 1384 255 255 255
70.1642 -46.7541 1427 255 255 255
7.80622 -46.6846 1426 255 255 255
218.504 -234.348 1374 255 255 255
-136.896 -195.937 1388 255 255 255
-37.5143 -63.734 1427 255 255 255
188.71 -125.752 1413 255 255 255
-121.894 -266.305 1401 255 255 255
132.376 -69.3456 1422 255 255 255
177.415 -108.805 1415 255 255 255
-141.018 -210.464 1372 255 255 255
-111.017 -137.171 1419 255 255 255
213.945 -252.153 1379 255 255 255
199.465 -142.311 1407 255 255 255
-122.299 -165.407 1416 255 255 255
204.217 -147.308 1400 255 255 255
-141.064 -205.029 1373 255 255 255
149.312 -80.6376 1420 255 255 255
218.419 -178.814 1379 255 255 255
208.774 -152.149 1392 255 255 255
2.14533 -46.6515 1425 255 255 255
-141.076 -216.056 1372 255 255 255
-127.525 -176.121 1410 255 255 255
-104.324 -309.447 1387 255 255 255
-132.441 -236.822 1396 255 255 255
-136.935 -229.352 1385 255 255 255
209.25 -264.408 1384 255 255 255
-127.254 -254.477 1399 255 255 255
-105.36 -125.861 1420 255 255 255
-141.111 -199.592 1374 255 255 255
-116.679 -148.489 1418 255 255 255
222.782 -210.959 1368 255 255 255
75.8423 -46.7605 1427 255 255 255
-48.8604 -69.4176 1427 255 255 255
-132.53 -186.501 1402 255 255 255
-103.86 -313.647 1380 255 255 255
-98.4661 -319.82 1382 255 255 255
-77.2359 -92.1237 1426 255 255 255
222.854 -205.51 1369 255 255 255
-141.136 -221.654 1372 255 255 255
-71.5439 -86.4294 1426 255 255 255
-103.322 -317.568 1372 255 255 255
-82.9331 -97.8237 1426 255 255 255
-132.407 -242.364 1395 255 255 255
-20.4648 -52.2761 1424 255 255 255
-116.33 -283.392 1400 255 255 255
98.5203 -52.4285 1426 255 255 255
-65.8567 -80.7401 1426 255 255 255
-137.142 -190.72 1391 255 255 255
-88.5737 -103.457 1425 255 255 255
-136.996 -235.016 1385 255 255 255
223.039 -216.723 1369 255 255 255
143.693 -75.0012 1421 255 255 255
218.502 -173.336 1380 255 255 255
-121.87 -271.886 1400 255 255 255
183.169 -114.52 1415 255 255 255
-31.8201 -58.0191 1426 255 255 255
-3.51 -46.6515 1425 255 255 255
-141.365 -194.436 1377 255 255 255
218.924 -240.355 1376 255 255 255
-127.226 -260.042 1398 255 255 255
213.586 -157.162 1386 255 255 255
194.343 -131.389 1412 255 255 255
-141.3 -227.426 1373 255 255 255
223.254 -200.352 1372 255 255 255
115.445 -58.0539 1424 255 255 255
-94.2122 -109.088 1424 255 255 255
-108.1 -315.319 1362 255 255 255
81.5228 -46.7672 1427 255 255 255
204.521 -276.775 1389 255 255 255
-122.349 -159.816 1417 255 255 255
223.168 -194.75 1372 255 255 255
-132.374 -247.906 1394 255 255 255
-108.826 -311.894 1372 255 255 255
-132.673 -181.088 1404 255 255 255
214.207 -258.04 1380 255 255 255
223.298 -222.502 1370 255 255 255
-127.665 -170.671 1412 255 255 255
41.7999 -41.0641 1427 255 255 255
36.1328 -41.0612 1427 255 255 255
-43.1837 -63.7387 1427 255 255 255
126.846 -63.7522 1424 255 255 255
47.4683 -41.0674 1427 255 255 255
-137.059 -240.689 1385 255 255 255
-60.2161 -75.1082 1427 255 255 255
218.869 -245.85 1375 255 255 255
30.4669 -41.0586 1427 255 255 255
-9.15901 -46.6193 1424 255 255 255
171.76 -97.5016 1416 255 255 255
-141.364 -233.043 1373 255 255 255
53.1382 -41.0712 1427 255 255 255
-99.849 -114.718 1423 255 255 255
-109.553 -308.395 1382 255 255 255
-111.067 -131.575 1420 255 255 255
-103.01 -322.14 1367 255 255 255
-98.2427 -324.668 1378 255 255 255
-116.73 -142.895 1419 255 255 255
-137.388 -185.485 1394 255 255 255
138.073 -69.363 1422 255 255 255
188.8 -120.158 1414 255 255 255
24.802 -41.0566 1427 255 255 255
223.409 -189.431 1374 255 255 255
166.258 -91.9344 1418 255 255 255
223.397 -228.131 1370 255 255 255
-132.343 -253.448 1393 255 255 255
199.696 -136.834 1409 255 255 255
177.38 -103.133 1415 255 255 255
104.209 -52.4383 1426 255 255 255
-127.199 -265.608 1397 255 255 255
-26.1181 -52.2783 1424 255 255 255
160.637 -86.2979 1419 255 255 255
218.747 -167.977 1382 255 255 255
-107.612 -319.378 1355 255 255 255
-141.724 -189.399 1381 255 255 255
-121.847 -277.469 1399 255 255 255
87.2059 -46.7744 1427 255 255 255
-137.024 -246.192 1384 255 255 255
-141.325 -238.494 1372 255 255 255
-116.31 -288.983 1399 255 255 255
19.1378 -41.0549 1427 255 255 255
-54.5334 -69.4241 1427 255 255 255
58.8509 -41.1043 1428 255 255 255
155.016 -80.6604 1420 255 255 255
-132.218 -258.804 1391 255 255 255
64.4831 -41.0801 1427 255 255 255
-37.4838 -58.0227 1426 255 255 255
-122.399 -154.223 1418 255 255 255
-136.892 -251.512 1382 255 255 255
209.813 -270.73 1387 255 255 255
-145.922 -209.602 1366 255 255 255
-112.967 -313.535 1354 255 255 255
-105.484 -120.347 1422 255 255 255
-145.97 -204.19 1367 255 255 255
194.296 -125.708 1412 255 255 255
-113.814 -310.37 1365 255 255 255
223.653 -184.101 1376 255 255 255
-14.8108 -46.6203 1424 255 255 255
-145.982 -215.171 1366 255 255 255
13.4742 -41.0537 1427 255 255 255
121.137 -58.0665 1424 255 255 255
-132.912 -175.789 1407 255 255 255
-127.805 -165.212 1414 255 255 255
92.8267 -46.7493 1426 255 255 255
183.131 -108.842 1415 255 255 255
-77.2232 -86.4412 1426 255 255 255
-146.019 -198.776 1368 255 255 255
-141.392 -244.123 1372 255 255 255
-82.9187 -92.1373 1426 255 255 255
-71.5329 -80.7502 1426 255 255 255
-146.044 -220.747 1366 255 255 255
132.453 -63.7226 1423 255 255 255
70.1586 -41.0851 1427 255 255 255
-127.173 -271.174 1396 255 255 255
205.036 -142.265 1406 255 255 255
149.395 -75.0216 1421 255 255 255
-121.738 -282.849 1397 255 255 255
218.835 -162.491 1383 255 255 255
-136.761 -256.824 1380 255 255 255
-102.699 -326.681 1362 255 255 255
-132.094 -264.152 1389 255 255 255
209.764 -147.261 1399 255 255 255
223.987 -234.279 1373 255 255 255
-48.8545 -63.7441 1427 255 255 255
-88.6195 -97.8391 1426 255 255 255
-142.083 -184.336 1385 255 255 255
-137.734 -180.36 1398 255 255 255
7.81105 -41.0529 1427 255 255 255
109.901 -52.4486 1426 255 255 255
219.454 -252.077 1378 255 255 255
-114.746 -307.346 1377 255 255 255
-116.782 -137.297 1420 255 255 255
-94.26 -103.474 1425 255 255 255
214.782 -264.327 1383 255 255 255
-146.284 -193.643 1371 255 255 255
-98.0916 -329.734 1375 255 255 255
223.899 -178.761 1378 255 255 255
-141.357 -249.577 1371 255 255 255
-20.4486 -46.589 1423 255 255 255
188.759 -114.479 1414 255 255 255
-146.215 -226.495 1367 255 255 255
-111.119 -125.975 1421 255 255 255
214.447 -152.21 1392 255 255 255
-65.8935 -75.1168 1427 255 255 255
-107.363 -324.11 1351 255 255 255
75.8362 -41.0906 1427 255 255 255
-31.7946 -52.3178 1425 255 255 255
-136.632 -262.129 1378 255 255 255
-112.537 -317.798 1348 255 255 255
2.14665 -41.0237 1426 255 255 255
-131.972 -269.493 1387 255 255 255
-127.057 -276.543 1394 255 255 255
143.775 -69.3811 1422 255 255 255
-122.451 -148.627 1419 255 255 255
98.5114 -46.7575 1426 255 255 255
-146.173 -231.92 1366 255 255 255
-133.058 -170.35 1409 255 255 255
199.929 -131.345 1411 255 255 255
177.346 -97.4645 1415 255 255 255
228.401 -211.052 1368 255 255 255
-141.22 -254.846 1369 255 255 255
171.851 -91.8986 1417 255 255 255
228.475 -205.601 1369 255 255 255
-127.947 -159.741 1416 255 255 255
-118.749 -308.849 1358 255 255 255
-60.2082 -69.4314 1427 255 255 255
-99.9687 -109.184 1425 255 255 255
-3.50974 -40.995 1425 255 255 255
210.076 -276.687 1388 255 255 255
223.985 -173.285 1379 255 255 255
-43.1789 -58.0677 1427 255 255 255
-121.717 -288.429 1396 255 255 255
126.832 -58.0798 1424 255 255 255
219.563 -257.775 1378 255 255 255
224.418 -240.284 1375 255 255 255
81.5162 -41.0966 1427 255 255 255
-115.594 -304.014 1388 255 255 255
-136.504 -267.425 1376 255 255 255
160.612 -80.6272 1419 255 255 255
115.515 -52.4226 1425 255 255 255
182.965 -103.095 1414 255 255 255
-146.656 -188.629 1375 255 255 255
166.348 -86.3242 1419 255 255 255
-146.24 -237.518 1366 255 255 255
228.664 -216.819 1369 255 255 255
194.389 -120.116 1413 255 255 255
-137.984 -175.084 1401 255 255 255
-105.536 -114.74 1423 255 255 255
219.242 -157.228 1386 255 255 255
-131.851 -274.826 1385 255 255 255
-118.035 -312.45 1349 255 255 255
-141.084 -260.107 1367 255 255 255
41.797 -35.3993 1427 255 255 255
-126.943 -281.904 1392 255 255 255
-119.726 -305.854 1370 255 255 255
36.1303 -35.3967 1427 255 255 255
-26.0975 -46.591 1423 255 255 255
228.884 -200.441 1372 255 255 255
-142.547 -179.376 1390 255 255 255
-136.178 -272.317 1372 255 255 255
-9.15829 -40.9667 1424 255 255 255
228.763 -222.438 1369 255 255 255
205.274 -136.789 1408 255 255 255
138.153 -63.7386 1423 255 255 255
228.796 -194.836 1372 255 255 255
-102.539 -331.679 1359 255 255 255
30.4648 -35.3946 1427 255 255 255
-54.5268 -63.7501 1427 255 255 255
53.1344 -35.4054 1427 255 255 255
104.199 -46.7663 1426 255 255 255
-116.835 -131.696 1421 255 255 255
47.4982 -35.4269 1428 255 255 255
-37.4537 -52.3212 1425 255 255 255
24.8002 -35.3928 1427 255 255 255
-82.9051 -86.4539 1426 255 255 255
224.525 -245.957 1375 255 255 255
155.103 -75.0427 1421 255 255 255
-146.309 -243.123 1366 255 255 255
87.1989 -41.1029 1427 255 255 255
-97.9413 -334.785 1372 255 255 255
-122.504 -143.027 1420 255 255 255
-131.636 -279.949 1382 255 255 255
-112.275 -322.501 1344 255 255 255
228.864 -228.065 1369 255 255 255
58.8056 -35.409 1427 255 255 255
224.236 -167.928 1381 255 255 255
188.719 -108.803 1414 255 255 255
-88.604 -92.1518 1426 255 255 255
-128 -154.15 1417 255 255 255
-111.172 -120.371 1422 255 255 255
-151.004 -209.049 1362 255 255 255
-121.611 -293.8 1394 255 255 255
-140.951 -265.359 1365 255 255 255
-77.2656 -80.8179 1427 255 255 255
-107.194 -329.063 1348 255 255 255
19.1364 -35.3914 1427 255 255 255
-133.299 -165.018 1412 255 255 255
229.043 -189.514 1374 255 255 255
-151.054 -203.651 1363 255 255 255
-150.995 -198.107 1363 255 255 255
215.36 -270.647 1386 255 255 255
-151.066 -214.603 1362 255 255 255
210.456 -142.118 1404 255 255 255
200.022 -125.755 1412 255 255 255
64.4786 -35.4131 1427 255 255 255
-71.5729 -75.1263 1427 255 255 255
-147.137 -183.722 1380 255 255 255
-136.053 -277.59 1370 255 255 255
-126.83 -287.258 1390 255 255 255
-94.3086 -97.8555 1426 255 255 255
-120.703 -302.769 1382 255 255 255
-117.584 -316.692 1343 255 255 255
-14.8096 -40.9675 1424 255 255 255
-146.272 -248.555 1365 255 255 255
149.48 -69.3999 1422 255 255 255
-151.131 -220.164 1362 255 255 255
121.209 -52.4341 1425 255 255 255
13.4732 -35.3903 1427 255 255 255
-48.8491 -58.0725 1427 255 255 255
-151.159 -192.851 1365 255 255 255
-131.422 -285.056 1379 255 255 255
-124.562 -304.141 1362 255 255 255
132.531 -58.0936 1424 255 255 255
-121.331 -298.734 1390 255 255 255
-123.723 -307.559 1352 255 255 255
177.315 -91.7987 1415 255 255 255
182.801 -97.3595 1413 255 255 255
92.8842 -41.1097 1427 255 255 255
194.346 -114.439 1413 255 255 255
-138.333 -169.91 1405 255 255 255
229.293 -184.182 1376 255 255 255
224.326 -162.443 1382 255 255 255
229.302 -234.041 1371 255 255 255
109.89 -46.7755 1426 255 255 255
-126.536 -292.184 1386 255 255 255
-140.818 -270.604 1363 255 255 255
171.822 -86.2296 1417 255 255 255
-31.7694 -46.6262 1424 255 255 255
-135.73 -282.443 1366 255 255 255
-100.019 -103.565 1426 255 255 255
-151.308 -225.898 1363 255 255 255
-143.011 -174.381 1395 255 255 255
-65.9309 -69.4881 1428 255 255 255
215.463 -147.32 1399 255 255 255
-122.472 -137.328 1420 255 255 255
7.81049 -35.3896 1427 255 255 255
70.2029 -35.4422 1428 255 255 255
-116.807 -126.002 1421 255 255 255
-146.237 -253.987 1364 255 255 255
-102.306 -336.414 1355 255 255 255
224.961 -252.003 1377 255 255 255
-125.494 -300.869 1373 255 255 255
220.313 -264.248 1382 255 255 255
188.415 -102.985 1412 255 255 255
-20.447 -40.9401 1423 255 255 255
-105.588 -109.128 1424 255 255 255
-131.114 -289.938 1375 255 255 255
205.513 -131.302 1410 255 255 255
143.858 -63.7552 1423 255 255 255
166.322 -80.6517 1419 255 255 255
-123.067 -311.367 1344 255 255 255
-97.7205 -339.575 1368 255 255 255
75.8309 -35.4221 1427 255 255 255
-133.447 -159.554 1414 255 255 255
2.14649 -35.3645 1426 255 255 255
-151.375 -231.478 1363 255 255 255
-43.1443 -52.3617 1426 255 255 255
-151.545 -187.86 1369 255 255 255
98.5035 -41.088 1426 255 255 255
220.126 -152.274 1392 255 255 255
-126.243 -297.086 1382 255 255 255
-128.145 -148.662 1419 255 255 255
-130.617 -294.365 1369 255 255 255
229.545 -178.84 1378 255 255 255
-60.243 -63.8014 1428 255 255 255
160.702 -75.0119 1420 255 255 255
-146.096 -259.228 1362 255 255 255
199.976 -120.075 1412 255 255 255
-112.181 -327.67 1342 255 255 255
-140.687 -275.842 1361 255 255 255
-130.025 -298.534 1362 255 255 255
-135.508 -287.482 1363 255 255 255
-147.725 -178.909 1386 255 255 255
-3.50951 -35.3397 1425 255 255 255
-111.226 -114.763 1423 255 255 255
-129.242 -302.207 1353 255 255 255
-151.445 -237.065 1363 255 255 255
126.908 -52.446 1425 255 255 255
-117.397 -321.616 1340 255 255 255
81.5106 -35.4272 1427 255 255 255
-107.106 -334.25 1346 255 255 255
225.073 -257.701 1377 255 255 255
215.786 -276.802 1388 255 255 255
182.51 -91.5701 1411 255 255 255
194.168 -108.688 1412 255 255 255
115.585 -46.7851 1426 255 255 255
229.911 -240.216 1374 255 255 255
-138.584 -164.593 1408 255 255 255
-54.5207 -58.0779 1427 255 255 255
-82.9505 -80.8298 1427 255 255 255
234.102 -205.694 1369 255 255 255
224.744 -157.181 1385 255 255 255
229.633 -173.361 1379 255 255 255
-88.6516 -86.5281 1427 255 255 255
138.235 -58.1082 1424 255 255 255
-77.2545 -75.1366 1427 255 255 255
234.198 -211.302 1369 255 255 255
41.7945 -29.7355 1427 255 255 255
155.191 -69.4195 1422 255 255 255
177.16 -86.075 1414 255 255 255
188.113 -97.1866 1410 255 255 255
211 -136.843 1408 255 255 255
104.191 -41.0957 1426 255 255 255
-26.1137 -40.9706 1424 255 255 255
-152.044 -182.976 1374 255 255 255
-122.528 -131.725 1421 255 255 255
-146.064 -264.656 1361 255 255 255
-94.3583 -92.2319 1427 255 255 255
30.463 -29.7316 1427 255 255 255
234.351 -200.385 1371 255 255 255
-151.516 -242.66 1363 255 255 255
-135.187 -292.292 1359 255 255 255
-128.651 -306.271 1346 255 255 255
205.464 -125.624 1410 255 255 255
-9.1641 -35.3401 1425 255 255 255
234.261 -194.783 1371 255 255 255
53.1313 -29.7407 1427 255 255 255
-143.477 -169.351 1400 255 255 255
-122.778 -316.061 1340 255 255 255
36.1535 -29.7543 1428 255 255 255
-37.4766 -46.6946 1426 255 255 255
234.468 -217.076 1370 255 255 255
-133.597 -154.079 1416 255 255 255
-102.072 -341.128 1351 255 255 255
47.4954 -29.7588 1428 255 255 255
87.1927 -35.4327 1427 255 255 255
24.7987 -29.7301 1427 255 255 255
-128.2 -143.061 1420 255 255 255
-156.11 -203.115 1359 255 255 255
-140.661 -281.279 1360 255 255 255
-71.6135 -69.4968 1428 255 255 255
-97.5006 -344.342 1364 255 255 255
-156.049 -197.585 1359 255 255 255
-156.173 -208.651 1359 255 255 255
199.791 -114.319 1411 255 255 255
229.724 -167.88 1380 255 255 255
-116.945 -120.481 1423 255 255 255
-100.071 -97.9416 1427 255 255 255
19.1353 -29.7289 1427 255 255 255
149.567 -63.7725 1423 255 255 255
-105.641 -103.512 1425 255 255 255
-48.8442 -52.4028 1427 255 255 255
58.8434 -29.7645 1428 255 255 255
-156.353 -214.352 1360 255 255 255
234.514 -189.462 1373 255 255 255
234.74 -222.865 1371 255 255 255
193.855 -102.876 1410 255 255 255
171.917 -80.6203 1418 255 255 255
64.4748 -29.7471 1427 255 255 255
-151.589 -248.263 1363 255 255 255
216.174 -142.176 1404 255 255 255
230.355 -246.245 1376 255 255 255
-156.219 -192.344 1361 255 255 255
-148.208 -173.929 1391 255 255 255
221.066 -270.762 1386 255 255 255
-65.9229 -63.8088 1428 255 255 255
-156.42 -219.907 1360 255 255 255
121.283 -46.7953 1426 255 255 255
-146.034 -270.085 1360 255 255 255
-134.868 -297.077 1355 255 255 255
13.4724 -29.728 1427 255 255 255
132.611 -52.4585 1425 255 255 255
-14.819 -35.3409 1425 255 255 255
182.221 -85.7996 1409 255 255 255
187.679 -91.3423 1407 255 255 255
-138.837 -159.256 1411 255 255 255
92.8778 -35.4385 1427 255 255 255
-112.088 -332.833 1340 255 255 255
109.882 -41.1038 1426 255 255 255
234.844 -228.503 1371 255 255 255
-128.253 -310.75 1341 255 255 255
166.415 -75.0346 1420 255 255 255
-140.429 -286.295 1357 255 255 255
70.1495 -29.7507 1427 255 255 255
-117.298 -326.769 1338 255 255 255
-156.391 -187.093 1363 255 255 255
-106.94 -339.179 1343 255 255 255
211.096 -131.26 1409 255 255 255
-31.7892 -41.0015 1425 255 255 255
-151.552 -253.688 1362 255 255 255
205.416 -119.951 1410 255 255 255
199.465 -108.497 1409 255 255 255
-111.359 -109.227 1425 255 255 255
7.81002 -29.7274 1427 255 255 255
229.983 -162.514 1382 255 255 255
143.943 -58.1233 1424 255 255 255
225.842 -264.172 1381 255 255 255
-156.718 -225.8 1362 255 255 255
234.941 -184.265 1376 255 255 255
221.17 -147.382 1399 255 255 255
-122.585 -126.118 1422 255 255 255
-60.2363 -58.1248 1428 255 255 255
-152.766 -178.315 1381 255 255 255
-128.257 -137.456 1421 255 255 255
-134.351 -301.393 1349 255 255 255
-133.748 -148.593 1418 255 255 255
-143.842 -164.169 1404 255 255 255
193.406 -97.0147 1407 255 255 255
-122.581 -320.973 1337 255 255 255
-20.4599 -35.3172 1424 255 255 255
75.8264 -29.7547 1427 255 255 255
-97.2099 -348.831 1359 255 255 255
-43.1706 -46.7308 1427 255 255 255
-88.638 -80.8425 1427 255 255 255
230.635 -252.116 1377 255 255 255
225.651 -152.229 1391 255 255 255
160.907 -69.4398 1422 255 255 255
-101.84 -345.819 1347 255 255 255
-146.005 -275.514 1359 255 255 255
-156.788 -231.378 1362 255 255 255
-94.3428 -86.5426 1427 255 255 255
98.5656 -35.4447 1427 255 255 255
235.294 -234.49 1373 255 255 255
2.14785 -29.7272 1427 255 255 255
-82.9968 -75.2002 1428 255 255 255
-156.793 -182.098 1367 255 255 255
-151.518 -259.114 1361 255 255 255
177.258 -80.4759 1415 255 255 255
155.172 -63.7456 1422 255 255 255
-117.001 -114.868 1424 255 255 255
187.248 -85.5248 1404 255 255 255
-77.2984 -69.5063 1428 255 255 255
115.576 -41.1123 1426 255 255 255
-100.053 -92.2484 1427 255 255 255
126.986 -46.806 1426 255 255 255
81.5057 -29.7589 1427 255 255 255
-54.5535 -52.4444 1428 255 255 255
-133.835 -305.669 1343 255 255 255
-156.86 -236.963 1362 255 255 255
235.37 -179.05 1379 255 255 255
-140.406 -291.726 1356 255 255 255
-127.951 -315.433 1337 255 255 255
138.318 -52.4716 1425 255 255 255
221.503 -276.92 1388 255 255 255
199.143 -102.695 1407 255 255 255
-148.799 -169.034 1397 255 255 255
192.822 -91.1152 1403 255 255 255
205.225 -114.201 1409 255 255 255
-105.696 -97.8915 1426 255 255 255
211.045 -125.585 1409 255 255 255
-139.092 -153.901 1414 255 255 255
-3.51424 -29.7272 1427 255 255 255
230.411 -157.25 1385 255 255 255
216.732 -136.898 1408 255 255 255
-37.4737 -41.0328 1426 255 255 255
230.918 -258.003 1378 255 255 255
-71.655 -63.8614 1429 255 255 255
-151.484 -264.539 1360 255 255 255
-26.1303 -35.3435 1425 255 255 255
-145.978 -280.945 1358 255 255 255
182.193 -80.1616 1409 255 255 255
104.257 -35.4512 1427 255 255 255
-128.315 -131.848 1422 255 255 255
235.746 -240.501 1375 255 255 255
-111.337 -103.533 1425 255 255 255
-96.8484 -353.028 1353 255 255 255
235.46 -173.565 1380 255 255 255
-144.105 -158.847 1407 255 255 255
41.8217 -24.0896 1428 255 255 255
87.1876 -29.7635 1427 255 255 255
-133.9 -143.095 1420 255 255 255
-112.08 -338.243 1339 255 255 255
-122.643 -120.508 1423 255 255 255
47.4931 -24.0915 1428 255 255 255
-117.288 -332.165 1337 255 255 255
-157.049 -242.734 1363 255 255 255
-161.195 -197.21 1356 255 255 255
-9.17001 -29.7067 1426 255 255 255
240.012 -211.555 1370 255 255 255
-65.9155 -58.1314 1428 255 255 255
30.4828 -24.0864 1428 255 255 255
149.655 -58.139 1424 255 255 255
-161.377 -202.879 1357 255 255 255
-106.854 -344.351 1341 255 255 255
-153.488 -173.604 1388 255 255 255
198.539 -96.7746 1403 255 255 255
240.088 -206.091 1371 255 255 255
-161.443 -208.409 1357 255 255 255
172.134 -75.0582 1420 255 255 255
-140.074 -296.501 1352 255 255 255
53.1659 -24.0937 1428 255 255 255
204.745 -108.308 1406 255 255 255
36.177 -24.1048 1429 255 255 255
-48.874 -46.7674 1428 255 255 255
-161.253 -191.838 1357 255 255 255
240.168 -200.625 1372 255 255 255
-157.542 -177.464 1374 255 255 255
-122.57 -326.359 1336 255 255 255
240.075 -195.015 1372 255 255 255
192.24 -85.2507 1399 255 255 255
121.274 -41.1212 1426 255 255 255
58.8405 -24.0962 1428 255 255 255
-161.629 -214.104 1358 255 255 255
235.382 -167.956 1380 255 255 255
-133.518 -310.368 1339 255 255 255
166.51 -69.412 1421 255 255 255
240.288 -217.336 1371 255 255 255
210.846 -119.828 1408 255 255 255
64.4717 -24.082 1427 255 255 255
24.8323 -24.1021 1429 255 255 255
221.899 -142.235 1404 255 255 255
-157.01 -248.156 1362 255 255 255
186.952 -79.791 1402 255 255 255
132.692 -46.8171 1426 255 255 255
-101.684 -350.75 1344 255 255 255
-161.312 -186.464 1358 255 255 255
226.778 -270.88 1386 255 255 255
92.8722 -29.7684 1427 255 255 255
236.03 -246.358 1376 255 255 255
-161.816 -219.814 1359 255 255 255
-151.564 -270.164 1360 255 255 255
-117.059 -109.25 1425 255 255 255
19.1612 -24.1011 1429 255 255 255
-60.2303 -52.4499 1428 255 255 255
-145.844 -286.165 1356 255 255 255
-149.178 -163.863 1401 255 255 255
109.951 -35.4582 1427 255 255 255
-127.841 -320.574 1335 255 255 255
240.334 -189.688 1374 255 255 255
-88.6875 -75.212 1428 255 255 255
70.146 -24.0849 1427 255 255 255
160.887 -63.7643 1422 255 255 255
240.567 -223.131 1372 255 255 255
-139.639 -301.028 1347 255 255 255
144.029 -52.4852 1425 255 255 255
197.938 -90.889 1399 255 255 255
-94.3944 -80.9127 1428 255 255 255
216.831 -131.313 1409 255 255 255
204.268 -102.442 1403 255 255 255
-139.348 -148.526 1417 255 255 255
226.721 -147.339 1398 255 255 255
-14.8389 -29.7282 1427 255 255 255
-161.491 -181.222 1360 255 255 255
-31.8094 -35.3701 1426 255 255 255
-91.7373 -360.036 1358 255 255 255
-162.006 -225.539 1360 255 255 255
-43.1672 -41.0646 1427 255 255 255
-133.96 -137.49 1421 255 255 255
-100.107 -86.6187 1428 255 255 255
-83.0439 -69.5651 1429 255 255 255
-157.087 -253.765 1362 255 255 255
-128.375 -126.236 1423 255 255 255
-96.4874 -357.187 1347 255 255 255
240.674 -228.776 1372 255 255 255
210.5 -114.002 1406 255 255 255
235.648 -162.587 1382 255 255 255
13.5001 -24.1173 1430 255 255 255
-105.752 -92.2658 1427 255 255 255
75.8227 -24.0882 1427 255 255 255
240.596 -184.351 1376 255 255 255
177.483 -74.9241 1417 255 255 255
-77.3432 -63.8702 1429 255 255 255
203.501 -96.4665 1398 255 255 255
155.264 -58.1145 1423 255 255 255
98.5598 -29.7736 1427 255 255 255
-122.703 -114.893 1424 255 255 255
-144.473 -153.615 1411 255 255 255
231.707 -264.481 1382 255 255 255
231.341 -152.296 1391 255 255 255
191.798 -79.4779 1396 255 255 255
-54.5486 -46.7719 1428 255 255 255
126.975 -41.1305 1426 255 255 255
216.471 -125.457 1407 255 255 255
-151.534 -275.595 1359 255 255 255
236.317 -252.231 1377 255 255 255
-162.198 -231.28 1361 255 255 255
197.198 -84.9774 1394 255 255 255
-154.102 -168.72 1394 255 255 255
-133.303 -315.28 1336 255 255 255
-145.713 -291.378 1354 255 255 255
-111.99 -343.4 1337 255 255 255
-139.205 -305.525 1342 255 255 255
7.82605 -24.1168 1430 255 255 255
209.857 -108.042 1402 255 255 255
-158.291 -172.78 1381 255 255 255
-117.28 -337.564 1336 255 255 255
-20.5018 -29.7291 1427 255 255 255
240.959 -234.599 1373 255 255 255
-71.647 -58.1794 1429 255 255 255
240.686 -178.873 1377 255 255 255
115.649 -35.4655 1427 255 255 255
81.5018 -24.0916 1427 255 255 255
-111.473 -97.9797 1427 255 255 255
-91.1952 -363.394 1349 255 255 255
138.402 -46.8288 1426 255 255 255
-106.769 -349.518 1339 255 255 255
-162.028 -176.357 1365 255 255 255
-157.166 -259.383 1362 255 255 255
-122.559 -331.748 1335 255 255 255
222.314 -136.858 1407 255 255 255
-117.036 -103.555 1425 255 255 255
227.227 -277.041 1388 255 255 255
-162.392 -237.037 1362 255 255 255
-101.454 -355.402 1340 255 255 255
-149.559 -158.665 1405 255 255 255
149.64 -52.4626 1424 255 255 255
-139.506 -143.031 1419 255 255 255
202.883 -90.5986 1394 255 255 255
172.232 -69.4339 1421 255 255 255
216.113 -119.621 1405 255 255 255
182.554 -74.6848 1412 255 255 255
104.25 -29.779 1427 255 255 255
-37.4974 -35.3971 1427 255 255 255
-134.021 -131.88 1422 255 255 255
240.779 -173.394 1378 255 255 255
-127.829 -325.953 1334 255 255 255
-65.9551 -52.4927 1429 255 255 255
2.15376 -24.1334 1431 255 255 255
87.1834 -24.0953 1427 255 255 255
-151.506 -281.027 1358 255 255 255
209.367 -102.19 1399 255 255 255
-48.87 -41.0968 1428 255 255 255
236.607 -258.121 1378 255 255 255
-145.475 -296.366 1351 255 255 255
-128.436 -120.62 1424 255 255 255
236.257 -157.435 1386 255 255 255
166.607 -63.7836 1422 255 255 255
-157.132 -264.814 1361 255 255 255
-166.445 -196.982 1354 255 255 255
-162.468 -242.632 1362 255 255 255
-166.633 -202.645 1355 255 255 255
-96.1988 -361.577 1342 255 255 255
-26.1654 -29.7303 1427 255 255 255
241.422 -240.614 1375 255 255 255
-138.876 -310.221 1338 255 255 255
-85.883 -369.632 1351 255 255 255
-166.701 -208.169 1355 255 255 255
245.482 -211.502 1369 255 255 255
-166.382 -191.475 1354 255 255 255
196.743 -79.2225 1391 255 255 255
245.561 -206.039 1370 255 255 255
132.681 -41.1403 1426 255 255 255
215.604 -113.724 1402 255 255 255
-100.092 -80.9271 1428 255 255 255
187.325 -74.3403 1405 255 255 255
-94.4471 -75.2773 1429 255 255 255
-162.567 -171.457 1370 255 255 255
-88.7378 -69.576 1429 255 255 255
-166.32 -185.975 1354 255 255 255
121.35 -35.4731 1427 255 255 255
245.642 -200.574 1371 255 255 255
-122.763 -109.274 1425 255 255 255
202.122 -84.7048 1389 255 255 255
-3.52393 -24.1335 1431 255 255 255
208.579 -96.2281 1394 255 255 255
47.5578 -18.4508 1430 255 255 255
-133.189 -320.418 1334 255 255 255
-167.016 -214.015 1357 255 255 255
-154.606 -163.676 1399 255 255 255
-144.841 -148.356 1415 255 255 255
144.016 -46.8081 1425 255 255 255
245.765 -217.281 1370 255 255 255
30.5243 -18.447 1430 255 255 255
160.982 -58.1315 1423 255 255 255
227.631 -142.296 1404 255 255 255
-90.7887 -367.235 1342 255 255 255
-60.267 -46.8095 1429 255 255 255
-105.808 -86.6351 1428 255 255 255
241.048 -168.034 1380 255 255 255
92.8677 -24.0992 1427 255 255 255
245.726 -195.108 1372 255 255 255
58.8794 -18.4415 1429 255 255 255
53.2383 -18.4525 1430 255 255 255
41.908 -18.4623 1431 255 255 255
36.2263 -18.461 1431 255 255 255
109.944 -29.7849 1427 255 255 255
-145.023 -300.891 1346 255 255 255
222.416 -131.275 1408 255 255 255
24.8487 -18.446 1430 255 255 255
-166.383 -180.614 1355 255 255 255
232.499 -271.002 1386 255 255 255
214.944 -107.777 1398 255 255 255
-83.0919 -63.9242 1430 255 255 255
245.872 -222.913 1370 255 255 255
-167.211 -219.723 1358 255 255 255
-162.666 -248.416 1363 255 255 255
-111.453 -92.2842 1427 255 255 255
-77.3346 -58.1873 1429 255 255 255
191.907 -73.9434 1397 255 255 255
-151.479 -286.46 1357 255 255 255
245.813 -189.64 1373 255 255 255
64.5595 -18.4435 1429 255 255 255
241.713 -246.473 1376 255 255 255
245.801 -228.385 1369 255 255 255
-157.215 -270.445 1361 255 255 255
-117.273 -342.966 1335 255 255 255
-111.985 -348.812 1336 255 255 255
-139.667 -137.525 1421 255 255 255
-134.083 -126.267 1423 255 255 255
-9.20172 -24.1337 1431 255 255 255
221.888 -125.331 1405 255 255 255
-159.27 -168.286 1390 255 255 255
-43.1945 -35.4245 1428 255 255 255
-149.94 -153.44 1409 255 255 255
177.71 -69.3587 1419 255 255 255
-85.3745 -372.908 1342 255 255 255
-122.551 -337.14 1334 255 255 255
-106.686 -354.681 1337 255 255 255
19.1872 -18.4582 1431 255 255 255
155.357 -52.4774 1424 255 255 255
-128.408 -114.92 1424 255 255 255
207.944 -90.374 1390 255 255 255
241.145 -162.545 1381 255 255 255
70.2417 -18.4457 1429 255 255 255
232.604 -147.509 1399 255 255 255
-167.53 -225.612 1360 255 255 255
-71.6398 -52.4993 1429 255 255 255
-101.3 -360.301 1337 255 255 255
-166.693 -175.508 1358 255 255 255
214.286 -101.866 1394 255 255 255
-138.652 -315.131 1335 255 255 255
-54.5824 -41.1295 1429 255 255 255
-117.179 -98.0003 1427 255 255 255
-127.818 -331.335 1333 255 255 255
-162.746 -254.031 1363 255 255 255
13.509 -18.4576 1431 255 255 255
-31.8744 -29.7736 1429 255 255 255
127.056 -35.4812 1427 255 255 255
221.363 -119.415 1402 255 255 255
138.391 -41.1505 1426 255 255 255
-95.8391 -365.662 1336 255 255 255
98.624 -24.1203 1428 255 255 255
201.654 -78.9677 1386 255 255 255
241.832 -252.166 1376 255 255 255
-144.68 -305.612 1342 255 255 255
246.26 -184.438 1376 255 255 255
237.416 -264.603 1382 255 255 255
115.642 -29.791 1427 255 255 255
246.273 -234.37 1371 255 255 255
75.9261 -18.4482 1429 255 255 255
-157.184 -275.882 1360 255 255 255
196.573 -73.6 1390 255 255 255
-167.729 -231.355 1361 255 255 255
-151.343 -291.68 1355 255 255 255
172.332 -63.8036 1422 255 255 255
-155 -158.485 1403 255 255 255
-133.076 -325.551 1332 255 255 255
-145.109 -142.968 1418 255 255 255
-65.9492 -46.8148 1429 255 255 255
-122.825 -103.65 1426 255 255 255
149.732 -46.8207 1425 255 255 255
-14.8902 -24.1511 1432 255 255 255
207.161 -84.4939 1385 255 255 255
81.5557 -18.4379 1428 255 255 255
-163.581 -167.006 1379 255 255 255
-90.4503 -371.307 1336 255 255 255
213.631 -95.9906 1390 255 255 255
228.057 -136.916 1407 255 255 255
246.352 -178.958 1377 255 255 255
7.83668 -18.4702 1432 255 255 255
220.84 -113.527 1399 255 255 255
-167.128 -170.51 1362 255 255 255
-80.0752 -379.161 1344 255 255 255
-94.4346 -69.5877 1429 255 255 255
-139.73 -131.914 1422 255 255 255
237.55 -152.693 1394 255 255 255
232.959 -277.165 1388 255 255 255
166.705 -58.1492 1423 255 255 255
-105.792 -80.9424 1428 255 255 255
-100.147 -75.2907 1429 255 255 255
-88.727 -63.8895 1429 255 255 255
-134.146 -120.65 1424 255 255 255
-162.948 -259.845 1364 255 255 255
183.047 -69.2352 1416 255 255 255
104.318 -24.1247 1428 255 255 255
220.005 -107.513 1394 255 255 255
-48.9009 -35.4523 1429 255 255 255
-168.052 -237.288 1363 255 255 255
132.672 -35.4648 1426 255 255 255
246.446 -173.476 1378 255 255 255
2.15517 -18.47 1432 255 255 255
-159.907 -163.374 1396 255 255 255
-111.513 -86.6524 1428 255 255 255
87.2411 -18.4407 1428 255 255 255
-150.324 -148.187 1413 255 255 255
-151.096 -296.672 1352 255 255 255
-128.471 -109.299 1425 255 255 255
-144.446 -310.542 1339 255 255 255
-85.0573 -376.967 1336 255 255 255
-138.533 -320.266 1333 255 255 255
121.343 -29.7974 1427 255 255 255
-83.0826 -58.2366 1430 255 255 255
-171.811 -196.902 1353 255 255 255
-37.574 -29.7963 1430 255 255 255
246.927 -240.554 1374 255 255 255
-171.619 -191.256 1352 255 255 255
-20.5727 -24.1519 1432 255 255 255
227.837 -131.144 1406 255 255 255
-122.451 -342.278 1332 255 255 255
161.079 -52.4927 1424 255 255 255
-172.006 -202.563 1354 255 255 255
-157.27 -281.527 1360 255 255 255
-117.267 -348.371 1334 255 255 255
250.953 -211.45 1368 255 255 255
212.978 -90.1501 1386 255 255 255
187.833 -68.9168 1409 255 255 255
-106.523 -359.569 1334 255 255 255
-111.98 -354.229 1335 255 255 255
251.034 -205.989 1369 255 255 255
242.118 -157.621 1387 255 255 255
242.48 -258.43 1379 255 255 255
-117.158 -92.3036 1427 255 255 255
144.106 -41.1612 1426 255 255 255
-172.202 -208.239 1355 255 255 255
-171.555 -185.762 1352 255 255 255
-60.3043 -41.1626 1430 255 255 255
219.33 -101.616 1390 255 255 255
251.117 -200.525 1370 255 255 255
251.02 -194.918 1370 255 255 255
-168.255 -243.067 1364 255 255 255
-127.809 -336.72 1332 255 255 255
-77.3808 -52.5431 1430 255 255 255
201.479 -73.3631 1385 255 255 255
233.371 -142.358 1404 255 255 255
-101.147 -365.188 1334 255 255 255
-172.401 -213.929 1356 255 255 255
-163.032 -265.482 1364 255 255 255
-167.686 -165.606 1367 255 255 255
192.294 -68.5011 1400 255 255 255
-145.276 -137.464 1420 255 255 255
-155.397 -153.266 1407 255 255 255
-171.62 -180.407 1353 255 255 255
92.9292 -18.4437 1428 255 255 255
110.016 -24.1294 1428 255 255 255
206.829 -78.8275 1383 255 255 255
-95.6236 -370.265 1332 255 255 255
246.722 -168.113 1380 255 255 255
251.426 -217.387 1370 255 255 255
-3.52873 -18.4829 1433 255 255 255
227.458 -125.295 1404 255 255 255
-150.739 -301.427 1348 255 255 255
177.938 -63.7794 1421 255 255 255
-139.795 -126.299 1423 255 255 255
238.227 -271.126 1386 255 255 255
36.2506 -12.7929 1432 255 255 255
-71.6333 -46.8207 1429 255 255 255
47.6229 -12.7948 1432 255 255 255
155.452 -46.8338 1425 255 255 255
-172.729 -219.797 1358 255 255 255
-133.165 -331.174 1332 255 255 255
-79.7194 -382.928 1337 255 255 255
251.535 -223.022 1370 255 255 255
-122.889 -98.0219 1427 255 255 255
-164.36 -162.254 1386 255 255 255
58.9601 -12.7883 1431 255 255 255
53.3113 -12.796 1432 255 255 255
226.757 -119.296 1400 255 255 255
-26.2558 -24.1529 1432 255 255 255
41.9654 -12.8027 1433 255 255 255
212.175 -84.2837 1381 255 255 255
64.6029 -12.7808 1430 255 255 255
24.8827 -12.7915 1432 255 255 255
247.404 -246.592 1376 255 255 255
196.688 -68.0858 1391 255 255 255
251.474 -189.732 1373 255 255 255
-144.105 -315.221 1335 255 255 255
-90.1802 -375.623 1331 255 255 255
218.657 -95.7539 1386 255 255 255
-134.211 -115.028 1425 255 255 255
30.5875 -12.8011 1433 255 255 255
251.463 -228.497 1369 255 255 255
-157.243 -286.97 1359 255 255 255
-171.814 -175.179 1355 255 255 255
138.381 -35.4736 1426 255 255 255
70.2397 -12.7734 1429 255 255 255
127.048 -29.8042 1427 255 255 255
-54.6168 -35.4804 1430 255 255 255
-160.317 -158.193 1400 255 255 255
19.2001 -12.791 1432 255 255 255
172.434 -58.1674 1423 255 255 255
-168.583 -249.044 1366 255 255 255
-9.21424 -18.4831 1433 255 255 255
226.059 -113.332 1396 255 255 255
-100.134 -69.6001 1429 255 255 255
-94.423 -63.9002 1429 255 255 255
-43.2827 -29.8193 1431 255 255 255
98.6202 -18.4469 1428 255 255 255
-163.118 -271.127 1364 255 255 255
-150.602 -142.806 1416 255 255 255
-173.059 -225.688 1360 255 255 255
225.04 -107.25 1390 255 255 255
-150.271 -305.93 1343 255 255 255
-105.851 -75.305 1429 255 255 255
247 -162.739 1382 255 255 255
-88.7171 -58.2049 1429 255 255 255
-138.52 -325.64 1332 255 255 255
-128.536 -103.674 1426 255 255 255
166.688 -52.4717 1423 255 255 255
-111.496 -80.9585 1428 255 255 255
13.5181 -12.7907 1432 255 255 255
75.9239 -12.775 1429 255 255 255
115.717 -24.1344 1428 255 255 255
-84.7406 -380.987 1330 255 255 255
-168.246 -160.666 1372 255 255 255
-65.99 -41.1673 1430 255 255 255
238.674 -147.786 1401 255 255 255
149.824 -41.1723 1426 255 255 255
243.132 -264.727 1382 255 255 255
-172.009 -169.94 1357 255 255 255
251.932 -184.528 1376 255 255 255
251.946 -234.485 1371 255 255 255
247.705 -252.471 1377 255 255 255
217.987 -89.9271 1382 255 255 255
224.186 -101.293 1385 255 255 255
233.808 -136.976 1407 255 255 255
-145.444 -131.949 1422 255 255 255
183.283 -63.6661 1418 255 255 255
-173.392 -231.603 1362 255 255 255
-122.537 -347.934 1332 255 255 255
-117.263 -353.78 1333 255 255 255
206.5 -73.1798 1381 255 255 255
-117.221 -86.6705 1428 255 255 255
-111.894 -359.379 1333 255 255 255
-83.0742 -52.5508 1430 255 255 255
-139.861 -120.68 1424 255 255 255
-31.9621 -24.171 1433 255 255 255
-157.218 -292.415 1358 255 255 255
-168.789 -254.86 1367 255 255 255
81.6105 -12.7768 1429 255 255 255
-106.442 -364.717 1332 255 255 255
-155.794 -148.02 1411 255 255 255
-127.801 -342.108 1331 255 255 255
132.664 -29.7904 1426 255 255 255
-163.086 -276.578 1363 255 255 255
104.314 -18.4502 1428 255 255 255
201.452 -67.8178 1385 255 255 255
7.84193 -12.7993 1433 255 255 255
238.699 -277.292 1388 255 255 255
-14.9104 -18.4964 1434 255 255 255
211.834 -78.6312 1379 255 255 255
-77.3198 -46.8271 1429 255 255 255
-134.183 -109.326 1425 255 255 255
-164.902 -157.225 1391 255 255 255
-100.995 -370.062 1331 255 255 255
252.209 -179.175 1378 255 255 255
-143.982 -320.358 1333 255 255 255
-122.867 -92.324 1427 255 255 255
161.177 -46.8475 1425 255 255 255
-74.5354 -389.786 1341 255 255 255
121.337 -24.1226 1427 255 255 255
-172.333 -164.812 1360 255 255 255
144.095 -35.4827 1426 255 255 255
-60.3002 -35.4841 1430 255 255 255
217.005 -84.0132 1376 255 255 255
-150.028 -310.866 1340 255 255 255
-133.155 -336.557 1331 255 255 255
-95.4807 -375.13 1329 255 255 255
-79.4239 -386.939 1331 255 255 255
-160.727 -152.985 1404 255 255 255
233.582 -131.201 1406 255 255 255
223.496 -95.449 1381 255 255 255
252.431 -240.497 1373 255 255 255
87.2997 -12.7787 1429 255 255 255
-177.306 -196.97 1353 255 255 255
-173.853 -237.716 1365 255 255 255
-177.107 -191.322 1352 255 255 255
243.791 -153.093 1397 255 255 255
252.305 -173.686 1379 255 255 255
178.043 -58.1454 1422 255 255 255
2.15811 -12.8082 1434 255 255 255
-150.881 -137.405 1419 255 255 255
-177.507 -202.633 1354 255 255 255
-156.962 -297.422 1355 255 255 255
-89.9786 -380.195 1327 255 255 255
-49.0349 -29.8634 1433 255 255 255
155.439 -41.1549 1425 255 255 255
-20.6006 -18.497 1434 255 255 255
-168.998 -260.692 1368 255 255 255
248.189 -258.554 1379 255 255 255
-177.041 -185.826 1352 255 255 255
-168.931 -155.805 1378 255 255 255
188.476 -63.5085 1414 255 255 255
256.694 -206.091 1369 255 255 255
110.012 -18.4538 1428 255 255 255
-138.508 -331.017 1331 255 255 255
-37.651 -24.1725 1433 255 255 255
-71.6777 -41.1724 1430 255 255 255
-128.603 -98.0446 1427 255 255 255
-177.841 -208.464 1356 255 255 255
256.8 -211.711 1369 255 255 255
247.996 -157.809 1388 255 255 255
-100.122 -63.9116 1429 255 255 255
-145.511 -126.332 1423 255 255 255
-163.176 -282.237 1363 255 255 255
233.193 -125.35 1404 255 255 255
-105.837 -69.6132 1429 255 255 255
-176.977 -180.335 1352 255 255 255
172.416 -52.4881 1423 255 255 255
-172.659 -159.665 1363 255 255 255
239.289 -142.523 1405 255 255 255
92.9916 -12.7808 1429 255 255 255
256.966 -200.772 1371 255 255 255
222.648 -89.5747 1376 255 255 255
-178.046 -214.161 1357 255 255 255
256.867 -195.158 1371 255 255 255
138.373 -29.7977 1426 255 255 255
-3.5311 -12.8082 1434 255 255 255
-139.929 -115.057 1425 255 255 255
252.736 -246.354 1374 255 255 255
232.475 -119.348 1400 255 255 255
-111.558 -75.32 1429 255 255 255
243.964 -271.254 1386 255 255 255
-94.4785 -58.2554 1430 255 255 255
-156.476 -301.967 1350 255 255 255
257.096 -217.496 1370 255 255 255
-156.083 -142.645 1414 255 255 255
127.042 -24.1281 1427 255 255 255
206.323 -67.5993 1380 255 255 255
-174.19 -243.683 1367 255 255 255
252.587 -168.316 1381 255 255 255
193.231 -63.2167 1407 255 255 255
211.496 -72.9971 1377 255 255 255
-149.787 -315.787 1337 255 255 255
-84.6157 -385.841 1327 255 255 255
-88.7702 -52.5591 1430 255 255 255
-122.44 -353.07 1330 255 255 255
230.549 -107.22 1389 255 255 255
-177.177 -175.11 1354 255 255 255
-178.385 -220.034 1359 255 255 255
-111.724 -364.251 1330 255 255 255
-117.171 -358.923 1331 255 255 255
231.759 -113.382 1396 255 255 255
-165.447 -152.16 1396 255 255 255
-134.251 -103.699 1426 255 255 255
-26.2915 -18.4978 1434 255 255 255
166.79 -46.8288 1424 255 255 255
197.512 -62.7904 1397 255 255 255
-117.285 -81.0322 1429 255 255 255
216.655 -78.3784 1374 255 255 255
-143.968 -325.734 1332 255 255 255
257.144 -189.827 1373 255 255 255
229.341 -101.118 1382 255 255 255
149.814 -35.4923 1426 255 255 255
-127.795 -347.5 1330 255 255 255
257.395 -223.296 1371 255 255 255
-106.282 -369.584 1329 255 255 255
-74.2053 -393.506 1334 255 255 255
-169.209 -266.542 1369 255 255 255
-150.95 -131.799 1420 255 255 255
115.713 -18.4576 1428 255 255 255
257.322 -228.779 1370 255 255 255
-66.0316 -35.513 1431 255 255 255
-83.0667 -46.8666 1430 255 255 255
-161.14 -147.749 1408 255 255 255
-133.047 -341.685 1329 255 255 255
-163.148 -287.695 1362 255 255 255
-122.933 -86.6897 1428 255 255 255
-43.3411 -24.1742 1433 255 255 255
-100.844 -374.922 1328 255 255 255
-169.371 -150.682 1382 255 255 255
-9.22685 -12.8172 1435 255 255 255
-145.478 -120.628 1423 255 255 255
252.689 -162.818 1382 255 255 255
253.044 -252.228 1375 255 255 255
201.718 -62.3646 1387 255 255 255
98.7556 -12.7919 1430 255 255 255
-173.112 -154.612 1367 255 255 255
221.963 -83.8046 1372 255 255 255
-156.107 -306.708 1346 255 255 255
228.302 -95.1448 1376 255 255 255
-177.379 -169.873 1356 255 255 255
-54.7664 -29.887 1434 255 255 255
-95.2669 -379.694 1325 255 255 255
-178.857 -226.098 1362 255 255 255
248.857 -264.854 1382 255 255 255
183.65 -58.1239 1421 255 255 255
161.164 -41.1669 1425 255 255 255
-79.2482 -391.503 1327 255 255 255
257.612 -184.62 1376 255 255 255
244.593 -147.96 1402 255 255 255
-128.58 -92.3453 1427 255 255 255
76.0289 -7.1122 1431 255 255 255
-77.3677 -41.1779 1430 255 255 255
-139.9 -109.353 1425 255 255 255
-174.657 -249.857 1370 255 255 255
257.627 -234.602 1371 255 255 255
-138.498 -336.397 1330 255 255 255
132.75 -24.1338 1427 255 255 255
144.087 -29.8054 1426 255 255 255
239.737 -137.135 1408 255 255 255
-169.299 -272.21 1369 255 255 255
-149.547 -320.694 1334 255 255 255
81.6662 -7.10819 1430 255 255 255
244.446 -277.423 1388 255 255 255
-32.0055 -18.5116 1435 255 255 255
-89.8455 -385.038 1324 255 255 255
-177.583 -164.626 1358 255 255 255
-156.373 -137.251 1417 255 255 255
121.417 -18.4615 1428 255 255 255
178.15 -52.5051 1423 255 255 255
-105.824 -63.9236 1429 255 255 255
-173.188 -149.205 1368 255 255 255
104.458 -12.7942 1430 255 255 255
155.428 -35.4774 1425 255 255 255
257.895 -179.264 1378 255 255 255
-179.331 -232.193 1365 255 255 255
-111.543 -69.627 1429 255 255 255
227.598 -89.3532 1372 255 255 255
211.314 -67.4305 1376 255 255 255
87.2982 -7.10425 1429 255 255 255
70.5826 -7.13616 1436 255 255 255
-100.181 -58.2658 1430 255 255 255
-163.242 -293.369 1362 255 255 255
257.936 -240.442 1372 255 255 255
216.466 -72.8151 1373 255 255 255
249.351 -153.055 1396 255 255 255
-155.856 -311.658 1343 255 255 255
-14.9412 -12.8354 1437 255 255 255
-143.956 -331.112 1331 255 255 255
-134.32 -98.0684 1427 255 255 255
-165.992 -147.06 1401 255 255 255
-94.469 -52.5678 1430 255 255 255
-151.126 -126.278 1422 255 255 255
239.505 -131.354 1407 255 255 255
-49.0667 -24.1931 1434 255 255 255
206.447 -62.119 1381 255 255 255
-122.345 -358.202 1328 255 255 255
