ply
format ascii 1.0
element vertex 1405
property float x
property float y
property float z
property uchar diffuse_red
property uchar diffuse_green
property uchar diffuse_blue
end_header
-399.632 -478.83 1377 255 255 255
395.471 86.5402 1442 255 255 255
559.217 -177.274 1398 255 255 255
503.827 -543.644 1340 255 255 255
535.479 -481.755 1355 255 255 255
490.744 -18.8875 1410 255 255 255
-395.152 -99.2988 1413 255 255 255
570.378 -241.5 1387 255 255 255
553.196 -153.788 1401 255 255 255
-232.26 104.008 1463 255 255 255
-410.251 -138.856 1400 255 255 255
-167.717 144.975 1466 255 255 255
-406.59 -128.055 1409 255 255 255
257.162 -754.352 1308 255 255 255
-106.731 176.185 1435 255 255 255
474.616 4.37813 1418 255 255 255
471.867 -594.105 1344 255 255 255
-431.912 -353.339 1407 255 255 255
341.471 127.17 1444 255 255 255
-342.495 -7.30395 1446 255 255 255
532.188 -94.5914 1400 255 255 255
529.432 -88.31 1393 255 255 255
-179.381 139.074 1465 255 255 255
564.954 -200.671 1394 255 255 255
-406.681 -462.76 1384 255 255 255
-389.764 -504.421 1380 255 255 255
495.298 -24.6379 1405 255 255 255
470.344 10.2416 1424 255 255 255
-349.569 -575.855 1372 255 255 255
528.714 -498.473 1350 255 255 255
-339.653 -590.728 1378 255 255 255
572.043 -336.151 1378 255 255 255
570.514 -235.701 1388 255 255 255
288.632 -743.416 1322 255 255 255
566.772 -377.655 1374 255 255 255
489.278 -570.401 1346 255 255 255
547.369 -452.61 1359 255 255 255
373.437 104.545 1451 255 255 255
-420.61 -418.279 1399 255 255 255
-317.058 27.5584 1440 255 255 255
-118.865 171.421 1443 255 255 255
508.482 -536.571 1337 255 255 255
312.374 144.779 1448 255 255 255
-416.376 -156.182 1399 255 255 255
-208.748 121.551 1464 255 255 255
-384.41 -516.786 1380 255 255 255
383.303 98.164 1442 255 255 255
-431.909 -359.201 1406 255 255 255
-373.742 -53.4811 1425 255 255 255
467.512 -601.923 1348 255 255 255
559.72 -412.059 1366 255 255 255
-149.578 156.107 1461 255 255 255
-130.865 166.257 1448 255 255 255
272.271 -752.502 1328 255 255 255
546.9 -130.249 1403 255 255 255
-330.628 10.2113 1447 255 255 255
-435.116 -263.757 1410 255 255 255
540.455 -112.564 1404 255 255 255
-426.375 -394.697 1402 255 255 255
480.213 -1.45066 1416 255 255 255
-383.294 -70.4546 1415 255 255 255
-414.631 -441.648 1395 255 255 255
521.256 -514.427 1343 255 255 255
553.544 -435.28 1362 255 255 255
-401.38 -110.941 1413 255 255 255
-434.895 -257.797 1410 255 255 255
477.619 -588.091 1344 255 255 255
559.423 -171.476 1399 255 255 255
409.97 -665.939 1446 255 255 255
-435.652 -269.917 1411 255 255 255
-249.744 92.2506 1461 255 255 255
541.666 -470.325 1357 255 255 255
-423.01 -179.49 1399 255 255 255
566.393 -383.276 1372 255 255 255
-191.179 133.275 1465 255 255 255
-226.502 109.919 1464 255 255 255
324.153 138.961 1447 255 255 255
553.03 -147.885 1401 255 255 255
-389.173 -81.9835 1414 255 255 255
-382.867 -520.544 1373 255 255 255
570.656 -229.902 1389 255 255 255
-355.011 -569.319 1371 255 255 255
-434.679 -251.845 1410 255 255 255
-434.16 -245.728 1409 255 255 255
-259.694 85.809 1450 255 255 255
-436.193 -276.096 1412 255 255 255
277.31 -754.48 1357 255 255 255
-431.911 -365.067 1405 255 255 255
360.31 115.892 1447 255 255 255
-61.7319 190.283 1456 255 255 255
-377.972 -59.0197 1418 255 255 255
-394.38 -497.017 1376 255 255 255
-374.943 -535.06 1362 255 255 255
494.699 -564.026 1345 255 255 255
-93.4365 184.039 1407 255 255 255
572.857 -342.51 1379 255 255 255
-436.74 -282.293 1413 255 255 255
-433.954 -239.799 1409 255 255 255
-399.735 -484.777 1376 255 255 255
367.618 110.456 1452 255 255 255
565.54 -195.014 1396 255 255 255
-67.3203 189.652 1451 255 255 255
-395.079 -93.5251 1413 255 255 255
-265.794 84.0572 1419 255 255 255
-335.388 -599.536 1384 255 255 255
-161.742 150.726 1465 255 255 255
-406.477 -468.364 1382 255 255 255
335.724 133.057 1445 255 255 255
-348.809 -13.162 1447 255 255 255
-406.78 -122.357 1410 255 255 255
296.634 -742.979 1333 255 255 255
-420.663 -424.203 1398 255 255 255
-267.804 82.9146 1399 255 255 255
513.508 -529.936 1335 255 255 255
535.633 -487.752 1354 255 255 255
485.816 -7.27385 1414 255 255 255
-426.409 -400.597 1401 255 255 255
570.806 -224.103 1390 255 255 255
-243.984 98.1482 1462 255 255 255
-105.576 179.946 1419 255 255 255
-336.671 4.37695 1447 255 255 255
-437.293 -288.508 1414 255 255 255
528.102 -503.736 1347 255 255 255
-411.021 -133.38 1403 255 255 255
-311.813 38.5159 1416 255 255 255
566.433 -389.178 1371 255 255 255
-431.918 -370.938 1404 255 255 255
-364.815 -554.706 1365 255 255 255
483.38 -582.095 1344 255 255 255
-268.876 81.5347 1375 255 255 255
-381.604 -524.641 1367 255 255 255
-98.5129 183.026 1399 255 255 255
519.891 -518.893 1338 255 255 255
-416.549 -150.513 1400 255 255 255
572.848 -348.384 1378 255 255 255
559.235 -165.558 1399 255 255 255
378.027 104.186 1445 255 255 255
-437.542 -294.534 1414 255 255 255
-220.593 115.758 1464 255 255 255
354.037 121.621 1446 255 255 255
-202.997 127.477 1465 255 255 255
-323.938 21.8283 1444 255 255 255
-263.628 85.1995 1439 255 255 255
-389.602 -510.058 1378 255 255 255
-72.9214 189.154 1447 255 255 255
547.49 -458.571 1358 255 255 255
575.726 -282.232 1379 255 255 255
539.954 -106.617 1403 255 255 255
-112.721 176.589 1438 255 255 255
-173.631 145.02 1466 255 255 255
501.421 -30.1068 1387 255 255 255
-437.796 -300.57 1414 255 255 255
575.987 -294.064 1378 255 255 255
560.205 -418.287 1366 255 255 255
576.062 -288.249 1379 255 255 255
-143.448 161.615 1458 255 255 255
570.551 -218.147 1390 255 255 255
575.814 -276.425 1380 255 255 255
-414.703 -447.595 1394 255 255 255
-401.013 -105.082 1412 255 255 255
-56.3357 191.7 1467 255 255 255
-360.713 -563.223 1371 255 255 255
-434.369 -234.209 1411 255 255 255
-423.469 -173.935 1401 255 255 255
553.646 -441.223 1361 255 255 255
407.48 80.7273 1441 255 255 255
-103.454 181.883 1390 255 255 255
-88.923 186.361 1425 255 255 255
547.152 -124.452 1404 255 255 255
500.122 -557.676 1344 255 255 255
576.338 -300.099 1378 255 255 255
575.91 -270.619 1381 255 255 255
491.077 -13.0827 1411 255 255 255
-415.537 -144.428 1397 255 255 255
576.278 -305.922 1377 255 255 255
-438.012 -312.453 1413 255 255 255
-185.301 139.12 1465 255 255 255
464.158 -611.148 1355 255 255 255
-124.83 171.697 1445 255 255 255
553.266 -142.088 1402 255 255 255
-316.196 33.2703 1436 255 255 255
401.364 86.5457 1441 255 255 255
-78.4928 188.657 1443 255 255 255
-428.975 -196.821 1397 255 255 255
504.419 -550.119 1340 255 255 255
-437.972 -318.292 1412 255 255 255
394.989 92.2949 1440 255 255 255
414.187 75.0077 1443 255 255 255
-438.366 -306.833 1415 255 255 255
-369.957 -547.87 1363 255 255 255
456.359 -622.586 1368 255 255 255
541.808 -476.31 1356 255 255 255
573.263 -354.52 1378 255 255 255
-83.8594 187.77 1436 255 255 255
576.012 -264.815 1382 255 255 255
566.481 -395.085 1370 255 255 255
-383.245 -64.6949 1415 255 255 255
566.132 -189.347 1398 255 255 255
-437.938 -324.134 1411 255 255 255
-432.239 -377.082 1404 255 255 255
318.413 144.864 1448 255 255 255
-420.722 -430.134 1397 255 255 255
-342.729 -1.46443 1447 255 255 255
347.786 127.34 1445 255 255 255
-238.387 104.124 1464 255 255 255
489.151 -576.117 1344 255 255 255
-434.481 -228.45 1412 255 255 255
-426.751 -406.793 1401 255 255 255
572.852 -360.146 1376 255 255 255
-380.624 -529.091 1362 255 255 255
-91.9415 186.624 1384 255 255 255
570.714 -212.351 1391 255 255 255
-437.909 -329.978 1410 255 255 255
-389.39 -76.2727 1415 255 255 255
-214.691 121.598 1464 255 255 255
576.122 -259.012 1383 255 255 255
388.909 98.0997 1440 255 255 255
-357.614 -25.0656 1458 255 255 255
-430.986 -203.517 1403 255 255 255
533.487 -88.0225 1387 255 255 255
577.062 -312.202 1378 255 255 255
559.453 -159.76 1400 255 255 255
-255.196 92.1039 1458 255 255 255
-360.085 -31.1766 1468 255 255 255
-395.011 -87.7545 1413 255 255 255
-388.88 -514.947 1374 255 255 255
-330.408 16.038 1446 255 255 255
-423.327 -168.129 1401 255 255 255
-137.061 166.758 1452 255 255 255
-406.573 -474.312 1381 255 255 255
-394.497 -502.997 1375 255 255 255
509.073 -543.018 1337 255 255 255
-406.975 -116.655 1411 255 255 255
527.495 -508.99 1344 255 255 255
-155.778 156.471 1464 255 255 255
535.398 -493.394 1352 255 255 255
-437.885 -335.826 1409 255 255 255
-197.109 133.322 1465 255 255 255
577.017 -318.039 1377 255 255 255
-432.389 -209.972 1407 255 255 255
-434.291 -222.532 1412 255 255 255
-414.484 -453.225 1392 255 255 255
560.287 -424.22 1365 255 255 255
330.208 139.047 1447 255 255 255
539.458 -100.682 1402 255 255 255
566.123 -400.706 1368 255 255 255
-50.8535 193.119 1478 255 255 255
519.307 -524.117 1335 255 255 255
-411.503 -127.793 1405 255 255 255
-432.256 -382.967 1403 255 255 255
-429.119 -191.139 1398 255 255 255
-400.134 -491.09 1376 255 255 255
496.688 -18.8918 1409 255 255 255
572.865 -366.034 1375 255 255 255
500.52 -24.6088 1402 255 255 255
-437.866 -341.678 1408 255 255 255
-433.798 -216.468 1411 255 255 255
-232.464 109.965 1464 255 255 255
-415.422 -138.67 1397 255 255 255
513.329 -535.556 1333 255 255 255
576.655 -253.392 1385 255 255 255
553.113 -136.191 1402 255 255 255
373.255 110.381 1450 255 255 255
547.02 -118.567 1404 255 255 255
537.431 -94.4885 1397 255 255 255
-348.561 -7.30838 1446 255 255 255
-167.762 150.874 1466 255 255 255
566.327 -183.538 1399 255 255 255
480.894 4.3827 1418 255 255 255
-355.883 -19.0757 1451 255 255 255
-375.362 -541.466 1362 255 255 255
-350.497 -583.262 1374 255 255 255
-387.594 -519.06 1368 255 255 255
548.023 -464.883 1358 255 255 255
-426.795 -412.71 1400 255 255 255
554.163 -447.503 1361 255 255 255
-401.218 -99.3746 1413 255 255 255
-355.432 -575.855 1371 255 255 255
-378.998 -53.4064 1422 255 255 255
341.791 133.142 1445 255 255 255
283.716 -751.72 1325 255 255 255
-420.786 -436.073 1396 255 255 255
476.631 10.2514 1424 255 255 255
383.376 104.045 1442 255 255 255
571.293 -206.702 1393 255 255 255
-111.739 180.744 1425 255 255 255
577.817 -324.351 1378 255 255 255
-375.543 -47.9293 1432 255 255 255
478.226 -594.712 1344 255 255 255
-118.738 176.995 1441 255 255 255
-27.6181 195.678 1498 255 255 255
576.777 -247.586 1386 255 255 255
-208.796 127.438 1464 255 255 255
263.507 -766.504 1381 255 255 255
-179.55 145.067 1466 255 255 255
572.885 -371.927 1374 255 255 255
-345.792 -591.145 1378 255 255 255
-87.9556 189.963 1409 255 255 255
-438.164 -347.779 1408 255 255 255
-432.28 -388.857 1402 255 255 255
-323.504 27.6134 1442 255 255 255
-336.676 10.218 1447 255 255 255
495.301 -570.579 1345 255 255 255
-423.493 -162.444 1402 255 255 255
486.156 -1.45047 1415 255 255 255
566.185 -406.622 1367 255 255 255
526.502 -513.854 1340 255 255 255
541.957 -482.305 1355 255 255 255
559.679 -153.958 1401 255 255 255
-249.958 98.1926 1462 255 255 255
-414.269 -458.855 1390 255 255 255
-226.549 115.805 1464 255 255 255
312.676 150.774 1449 255 255 255
560.378 -430.16 1364 255 255 255
-394.045 -508.246 1372 255 255 255
566.122 -177.6 1399 255 255 255
576.907 -241.78 1387 255 255 255
-406.886 -110.87 1411 255 255 255
-429.574 -185.587 1400 255 255 255
-130.906 172.094 1448 255 255 255
473.879 -602.53 1348 255 255 255
-386.31 -523.138 1362 255 255 255
-438.156 -353.643 1407 255 255 255
-267.848 88.5511 1399 255 255 255
-360.872 -569.326 1370 255 255 255
367.443 116.292 1451 255 255 255
-260.095 91.7685 1452 255 255 255
-149.724 162.102 1462 255 255 255
-389.335 -70.5064 1415 255 255 255
-406.673 -480.268 1380 255 255 255
535.17 -499.037 1350 255 255 255
-394.947 -81.9869 1413 255 255 255
-191.356 139.263 1466 255 255 255
578.626 -330.684 1379 255 255 255
500.352 -563.789 1343 255 255 255
571.469 -200.9 1394 255 255 255
483.988 -588.699 1344 255 255 255
572.912 -377.826 1373 255 255 255
360.64 121.871 1448 255 255 255
-383.741 -59.0207 1417 255 255 255
-426.845 -418.633 1399 255 255 255
324.463 144.951 1448 255 255 255
505.841 -30.0279 1382 255 255 255
-266.212 89.8977 1421 255 255 255
491.416 -7.26998 1412 255 255 255
-269.311 87.2039 1377 255 255 255
553.873 -453.135 1359 255 255 255
-380.765 -535.088 1361 255 255 255
274.369 -762.928 1373 255 255 255
546.895 -112.685 1404 255 255 255
577.044 -235.975 1388 255 255 255
-411.989 -122.193 1407 255 255 255
-423.06 -156.534 1401 255 255 255
-438.153 -359.51 1406 255 255 255
-440.788 -257.834 1409 255 255 255
553.362 -130.391 1403 255 255 255
-441.557 -269.957 1410 255 255 255
-415.907 -133.106 1399 255 255 255
335.81 138.941 1445 255 255 255
-400.248 -497.06 1375 255 255 255
-420.855 -442.018 1395 255 255 255
-342.73 4.38002 1447 255 255 255
-441.326 -263.983 1410 255 255 255
-432.617 -395.034 1402 255 255 255
413.674 80.7905 1441 255 255 255
536.34 -87.545 1378 255 255 255
-440.569 -251.882 1409 255 255 255
-442.106 -276.137 1411 255 255 255
-45.3764 194.932 1492 255 255 255
-220.641 121.646 1464 255 255 255
-110.287 184.014 1406 255 255 255
565.925 -171.669 1399 255 255 255
407.545 86.6123 1441 255 255 255
-244.363 104.17 1464 255 255 255
420.112 75.0152 1442 255 255 255
548.16 -470.866 1357 255 255 255
579.022 -336.793 1379 255 255 255
-264.038 91.1176 1441 255 255 255
559.51 -148.048 1401 255 255 255
354.12 127.513 1446 255 255 255
401.153 92.3648 1440 255 255 255
-401.144 -93.5964 1413 255 255 255
-161.897 156.731 1466 255 255 255
489.396 -582.271 1343 255 255 255
-203.045 133.371 1465 255 255 255
262.749 -759.541 1304 255 255 255
-330.191 21.8571 1445 255 255 255
-440.354 -245.938 1409 255 255 255
525.513 -518.7 1336 255 255 255
505.397 -557.033 1341 255 255 255
-341.796 -600.386 1385 255 255 255
-355.382 -13.1884 1449 255 255 255
-414.059 -464.483 1388 255 255 255
-442.661 -282.336 1412 255 255 255
572.947 -383.729 1372 255 255 255
566.669 -412.846 1367 255 255 255
-438.155 -365.382 1405 255 255 255
-393.31 -513.112 1368 255 255 255
577.187 -230.169 1389 255 255 255
269.537 -766.378 1380 255 255 255
560.475 -436.108 1363 255 255 255
509.673 -549.487 1337 255 255 255
-39.5773 195.701 1498 255 255 255
-440.146 -240.004 1409 255 255 255
534.154 -503.932 1346 255 255 255
-366.575 -563.235 1370 255 255 255
395.061 98.1727 1440 255 255 255
-33.6868 196.211 1502 255 255 255
378.889 110.307 1448 255 255 255
470.202 -611.306 1354 255 255 255
497.025 -13.0855 1410 255 255 255
-173.796 151.024 1467 255 255 255
-443.222 -288.552 1413 255 255 255
-430.341 -180.153 1403 255 255 255
-426.899 -424.563 1398 255 255 255
572.062 -195.236 1396 255 255 255
-406.802 -105.089 1411 255 255 255
542.114 -488.309 1354 255 255 255
579.427 -342.916 1379 255 255 255
-124.784 177.403 1444 255 255 255
-432.651 -400.94 1401 255 255 255
-238.433 110.012 1464 255 255 255
306.766 -747.437 1353 255 255 255
-143.589 167.605 1459 255 255 255
513.927 -541.992 1333 255 255 255
-406.485 -485.882 1378 255 255 255
-422.933 -150.744 1401 255 255 255
-371.467 -555.944 1367 255 255 255
-185.475 145.115 1466 255 255 255
546.387 -106.732 1403 255 255 255
-83.7721 193.303 1434 255 255 255
-348.8 -1.46508 1447 255 255 255
577.338 -224.363 1390 255 255 255
347.871 133.228 1445 255 255 255
-435.575 -202.964 1398 255 255 255
-443.788 -294.788 1414 255 255 255
-440.254 -234.243 1410 255 255 255
-386.165 -528.735 1360 255 255 255
572.989 -389.638 1371 255 255 255
-323.074 33.3832 1440 255 255 255
-87.1133 193.719 1395 255 255 255
-420.93 -447.972 1394 255 255 255
-438.475 -371.522 1405 255 255 255
553.997 -459.103 1358 255 255 255
389.254 104.049 1441 255 255 255
-255.416 98.0367 1459 255 255 255
307.153 156.8 1451 255 255 255
-336.452 16.0482 1446 255 255 255
-444.047 -300.829 1414 255 255 255
566.139 -165.862 1400 255 255 255
-434.782 -196.847 1396 255 255 255
318.721 150.863 1449 255 255 255
-392.29 -517.581 1363 255 255 255
-214.887 127.574 1465 255 255 255
553.616 -124.588 1404 255 255 255
-395.167 -76.2758 1414 255 255 255
505.733 -24.5801 1399 255 255 255
-389.56 -64.7883 1416 255 255 255
566.746 -418.779 1366 255 255 255
463.121 -623.645 1369 255 255 255
577.08 -218.4 1390 255 255 255
-416.396 -127.531 1401 255 255 255
560.168 -441.74 1361 255 255 255
-197.158 139.217 1465 255 255 255
-118.201 181.924 1434 255 255 255
559.748 -142.245 1402 255 255 255
579.84 -349.051 1379 255 255 255
495.542 -576.726 1344 255 255 255
-413.854 -470.111 1386 255 255 255
-422.208 -144.753 1399 255 255 255
533.144 -508.81 1342 255 255 255
330.296 144.94 1447 255 255 255
-437.622 -209.703 1404 255 255 255
542.277 -94.319 1393 255 255 255
-440.368 -228.482 1411 255 255 255
-78.6836 194.891 1446 255 255 255
-412.772 -116.664 1410 255 255 255
-400.367 -503.041 1374 255 255 255
-380.561 -47.8293 1428 255 255 255
-432.69 -406.851 1400 255 255 255
-401.075 -87.8214 1413 255 255 255
-376.615 -549.099 1365 255 255 255
-444.625 -307.098 1415 255 255 255
548.305 -476.859 1356 255 255 255
-426.959 -430.5 1397 255 255 255
-137.198 172.731 1453 255 255 255
-232.671 115.933 1465 255 255 255
-444.58 -312.944 1414 255 255 255
-155.93 162.479 1465 255 255 255
486.846 4.38422 1417 255 255 255
-438.489 -377.408 1404 255 255 255
-73.3 195.942 1454 255 255 255
583.114 -282.976 1381 255 255 255
-430.806 -174.577 1405 255 255 255
502.998 -18.9098 1409 255 255 255
572.661 -189.562 1398 255 255 255
-439.051 -216.191 1408 255 255 255
-444.541 -318.793 1413 255 255 255
545.497 -100.718 1401 255 255 255
541.476 -493.593 1351 255 255 255
583.38 -294.841 1380 255 255 255
583.314 -300.674 1379 255 255 255
579.839 -354.942 1378 255 255 255
-356.377 -583.264 1373 255 255 255
573.039 -395.554 1370 255 255 255
-384.513 -53.3698 1420 255 255 255
583.202 -277.153 1382 255 255 255
583.455 -289.01 1381 255 255 255
-440.174 -222.563 1411 255 255 255
-444.507 -324.644 1412 255 255 255
-67.8546 196.995 1462 255 255 255
577.244 -212.597 1391 255 255 255
341.879 139.03 1445 255 255 255
373.85 116.453 1452 255 255 255
565.955 -159.939 1400 255 255 255
583.297 -271.332 1383 255 255 255
-167.923 156.884 1467 255 255 255
583.677 -306.732 1379 255 255 255
-444.478 -330.499 1411 255 255 255
-321.301 38.9747 1432 255 255 255
-342.735 10.2247 1447 255 255 255
-421.488 -138.783 1397 255 255 255
-407.01 -99.3813 1412 255 255 255
-355.131 -7.32291 1448 255 255 255
-62.3049 197.914 1469 255 255 255
-361.564 -576.283 1371 255 255 255
383.986 110.081 1444 255 255 255
492.108 -1.45037 1414 255 255 255
-208.988 133.421 1465 255 255 255
-226.598 121.696 1464 255 255 255
-268.086 94.2577 1400 255 255 255
583.4 -265.512 1384 255 255 255
-406.596 -491.853 1377 255 255 255
-391.562 -522.408 1359 255 255 255
-250.176 104.146 1463 255 255 255
579.846 -360.837 1377 255 255 255
-435.55 -191.437 1399 255 255 255
566.831 -424.72 1365 255 255 255
-329.978 27.6688 1444 255 255 255
-444.454 -336.357 1410 255 255 255
484.604 -595.328 1344 255 255 255
553.483 -118.696 1404 255 255 255
501.335 -570.765 1344 255 255 255
-381.751 -542.29 1363 255 255 255
-179.721 151.072 1467 255 255 255
559.594 -136.341 1402 255 255 255
483.614 10.2758 1426 255 255 255
584.048 -312.801 1379 255 255 255
532.138 -513.671 1338 255 255 255
-260.32 97.6799 1453 255 255 255
-82.926 197.02 1419 255 255 255
-438.82 -383.571 1404 255 255 255
-421.312 -454.259 1394 255 255 255
560.28 -447.699 1360 255 255 255
479.91 -602.699 1347 255 255 255
-413.654 -475.739 1384 255 255 255
583.51 -259.693 1385 255 255 255
-269.75 92.8922 1379 255 255 255
584.003 -318.651 1378 255 255 255
-352.199 -592 1379 255 255 255
-130.857 177.814 1447 255 255 255
572.856 -183.747 1399 255 255 255
573.095 -401.475 1369 255 255 255
-444.436 -342.218 1409 255 255 255
-433.044 -413.064 1400 255 255 255
419.883 80.8547 1441 255 255 255
577.415 -206.793 1392 255 255 255
-427.025 -436.444 1396 255 255 255
-430.968 -168.869 1406 255 255 255
506.006 -563.559 1341 255 255 255
554.537 -465.424 1358 255 255 255
288.426 -762.079 1383 255 255 255
-266.633 95.7574 1423 255 255 255
367.779 122.292 1452 255 255 255
-399.908 -508.29 1371 255 255 255
407.331 92.4358 1440 255 255 255
360.725 127.775 1448 255 255 255
413.74 86.6799 1441 255 255 255
-191.406 145.165 1466 255 255 255
305.665 -753.475 1378 255 255 255
-114.242 186.907 1385 255 255 255
497.368 -7.27131 1411 255 255 255
579.86 -366.737 1376 255 255 255
301.416 162.73 1452 255 255 255
510.281 -555.979 1337 255 255 255
490.013 -588.878 1343 255 255 255
426.34 75.0758 1442 255 255 255
-367.005 -569.755 1370 255 255 255
583.626 -253.874 1386 255 255 255
565.778 -154.021 1400 255 255 255
324.553 150.85 1448 255 255 255
-395.391 -70.5591 1415 255 255 255
-412.975 -110.958 1411 255 255 255
-417.187 -122.031 1404 255 255 255
313.198 156.891 1451 255 255 255
-444.423 -348.082 1408 255 255 255
401.226 98.2471 1440 255 255 255
-149.871 168.109 1463 255 255 255
-401.009 -82.0493 1413 255 255 255
-348.801 4.38324 1447 255 255 255
-244.411 110.061 1464 255 255 255
514.534 -548.45 1333 255 255 255
548.457 -482.862 1355 255 255 255
-264.267 96.9876 1442 255 255 255
541.246 -499.239 1349 255 255 255
-438.844 -389.471 1403 255 255 255
-421.376 -133.024 1397 255 255 255
-336.231 21.8709 1445 255 255 255
-390.065 -59.1057 1418 255 255 255
-363.742 -19.1801 1458 255 255 255
583.75 -248.057 1387 255 255 255
354.207 133.408 1446 255 255 255
584.814 -324.975 1379 255 255 255
336.131 144.93 1446 255 255 255
-386.877 -535.515 1361 255 255 255
-117.334 186.279 1423 255 255 255
-220.842 127.625 1465 255 255 255
572.65 -177.802 1399 255 255 255
-444.415 -353.951 1407 255 255 255
552.962 -112.728 1403 255 255 255
579.882 -372.642 1375 255 255 255
577.593 -200.988 1393 255 255 255
531.138 -518.514 1334 255 255 255
573.16 -407.403 1368 255 255 255
-203.234 139.363 1466 255 255 255
-366.501 -25.2712 1469 255 255 255
-433.095 -418.993 1399 255 255 255
-446.689 -257.875 1408 255 255 255
-124.479 182.726 1440 255 255 255
395.411 104.126 1441 255 255 255
-444.097 -359.568 1405 255 255 255
-406.417 -497.472 1375 255 255 255
567.338 -430.984 1365 255 255 255
-447.234 -264.025 1409 255 255 255
-162.055 162.748 1467 255 255 255
-407.223 -93.669 1413 255 255 255
583.88 -242.24 1388 255 255 255
559.845 -130.535 1403 255 255 255
495.791 -582.888 1343 255 255 255
-399.162 -513.156 1367 255 255 255
379.231 116.295 1449 255 255 255
-56.9702 199.779 1483 255 255 255
-421.398 -460.233 1393 255 255 255
585.208 -331.08 1379 255 255 255
545.925 -93.9469 1386 255 255 255
579.489 -378.277 1373 255 255 255
-427.095 -442.395 1395 255 255 255
-448.025 -276.182 1410 255 255 255
-447.786 -270.193 1410 255 255 255
-348.226 -601.244 1386 255 255 255
-436.945 -186.275 1404 255 255 255
-173.845 156.933 1467 255 255 255
510.572 -24.5339 1395 255 255 255
-431.442 -163.275 1408 255 255 255
-438.874 -395.377 1402 255 255 255
-238.646 115.983 1465 255 255 255
-446.248 -245.977 1408 255 255 255
-446.783 -252.101 1409 255 255 255
503.339 -13.0978 1410 255 255 255
-413.757 -481.715 1383 255 255 255
476.607 -611.924 1354 255 255 255
-441.579 -208.837 1397 255 255 255
-448.589 -282.382 1411 255 255 255
560.812 -454.001 1360 255 255 255
-362.234 -13.2243 1452 255 255 255
566.012 -148.214 1401 255 255 255
540.219 -504.136 1345 255 255 255
304.124 -752.829 1337 255 255 255
-185.525 151.019 1466 255 255 255
554.677 -471.415 1357 255 255 255
-143.634 173.489 1459 255 255 255
584.018 -236.423 1389 255 255 255
-372.987 -564.078 1371 255 255 255
-440.769 -202.703 1395 255 255 255
-385.559 -47.7296 1424 255 255 255
-412.889 -105.172 1411 255 255 255
439.247 -656.567 1435 255 255 255
-355.128 -1.46676 1448 255 255 255
348.201 139.216 1446 255 255 255
-444.416 -365.701 1405 255 255 255
-214.938 133.472 1465 255 255 255
-329.54 33.4502 1442 255 255 255
572.859 -171.987 1400 255 255 255
-255.814 104.052 1461 255 255 255
-391.991 -528.774 1359 255 255 255
-342.744 16.0698 1447 255 255 255
-449.158 -288.6 1412 255 255 255
-446.353 -240.211 1409 255 255 255
548.212 -488.513 1353 255 255 255
389.873 110.085 1443 255 255 255
573.231 -413.337 1367 255 255 255
552.448 -106.772 1402 255 255 255
-421.571 -127.362 1398 255 255 255
492.458 4.3827 1415 255 255 255
-433.151 -424.929 1398 255 255 255
508.242 -18.8878 1406 255 255 255
-400.949 -76.2799 1413 255 255 255
-398.127 -517.625 1362 255 255 255
586.035 -337.442 1380 255 255 255
-417.982 -116.51 1407 255 255 255
319.033 156.875 1450 255 255 255
-443.661 -215.61 1403 255 255 255
-446.146 -234.279 1409 255 255 255
-232.721 121.83 1465 255 255 255
-438.909 -401.288 1401 255 255 255
-395.619 -64.8367 1416 255 255 255
584.162 -230.605 1390 255 255 255
469.568 -624.259 1369 255 255 255
578.606 -195.462 1396 255 255 255
501.58 -576.915 1343 255 255 255
-449.732 -294.837 1413 255 255 255
-197.343 145.216 1466 255 255 255
579.947 -384.468 1373 255 255 255
567.438 -436.945 1364 255 255 255
-431.308 -157.446 1408 255 255 255
538.795 -508.637 1340 255 255 255
-444.425 -371.583 1404 255 255 255
307.668 162.935 1453 255 255 255
295.884 168.785 1454 255 255 255
559.703 -124.636 1403 255 255 255
330.616 150.942 1448 255 255 255
-449.995 -300.88 1413 255 255 255
550.759 -100.612 1398 255 255 255
-427.172 -448.354 1394 255 255 255
-362.262 -583.272 1372 255 255 255
-445.116 -222.124 1407 255 255 255
583.893 -224.627 1390 255 255 255
-137.242 178.595 1453 255 255 255
565.849 -142.303 1401 255 255 255
-421.489 -466.215 1392 255 255 255
-378.428 -557.597 1370 255 255 255
-367.173 -575.877 1369 255 255 255
-407.152 -87.8894 1413 255 255 255
-437.722 -180.82 1407 255 255 255
572.666 -166.051 1400 255 255 255
-441.227 -197.158 1397 255 255 255
341.97 144.922 1445 255 255 255
-156.083 168.501 1466 255 255 255
586.445 -343.576 1380 255 255 255
506.624 -570.108 1341 255 255 255
-413.567 -487.347 1381 255 255 255
-250.225 110.035 1463 255 255 255
-406.539 -503.458 1374 255 255 255
-268.52 100.047 1402 255 255 255
374.191 122.461 1453 255 255 255
-269.8 98.4568 1379 255 255 255
510.898 -562.494 1337 255 255 255
498.069 -1.45019 1413 255 255 255
-450.581 -307.15 1414 255 255 255
384.334 116.057 1445 255 255 255
413.524 92.508 1440 255 255 255
560.94 -459.982 1359 255 255 255
547.937 -93.3037 1375 255 255 255
-390.848 -53.4466 1421 255 255 255
583.632 -218.656 1390 255 255 255
-446.578 -228.68 1411 255 255 255
-349.047 10.2388 1448 255 255 255
419.95 86.7487 1441 255 255 255
-357.85 -591.574 1377 255 255 255
547.567 -493.8 1350 255 255 255
579.991 -390.39 1372 255 255 255
515.148 -554.931 1333 255 255 255
-438.95 -407.206 1400 255 255 255
-336.247 27.7055 1445 255 255 255
-226.805 127.677 1465 255 255 255
-260.548 103.603 1454 255 255 255
-430.872 -151.515 1407 255 255 255
-433.212 -430.871 1397 255 255 255
-361.479 -7.33254 1449 255 255 255
-209.183 139.416 1466 255 255 255
586.438 -349.47 1379 255 255 255
554.825 -477.416 1356 255 255 255
-168.087 162.908 1468 255 255 255
407.405 98.3226 1440 255 255 255
426.403 80.9761 1442 255 255 255
-444.755 -377.739 1404 255 255 255
-51.5254 201.646 1497 255 255 255
-450.855 -313.219 1414 255 255 255
-266.871 101.565 1424 255 255 255
432.582 75.1374 1442 255 255 255
567.129 -442.588 1362 255 255 255
573.73 -419.586 1367 255 255 255
-179.771 156.984 1467 255 255 255
489.945 10.2859 1426 255 255 255
-413.1 -99.4596 1412 255 255 255
579.211 -189.781 1398 255 255 255
-429.524 -145.287 1403 255 255 255
583.377 -212.693 1390 255 255 255
-383.587 -550.74 1368 255 255 255
-78.9844 201.433 1451 255 255 255
-328.42 39.1349 1437 255 255 255
491.003 -595.953 1344 255 255 255
-130.81 183.531 1446 255 255 255
-450.782 -324.93 1412 255 255 255
401.303 104.133 1440 255 255 255
-451.135 -319.299 1414 255 255 255
579.619 -396.028 1370 255 255 255
572.479 -160.12 1400 255 255 255
586.439 -355.369 1378 255 255 255
559.568 -118.742 1403 255 255 255
538.18 -513.879 1337 255 255 255
361.062 133.775 1449 255 255 255
-422.373 -121.869 1401 255 255 255
565.692 -136.396 1401 255 255 255
-450.753 -330.79 1411 255 255 255
-264.5 102.869 1443 255 255 255
-397.972 -523.222 1360 255 255 255
503.687 -7.27795 1411 255 255 255
-191.588 151.174 1467 255 255 255
-405.777 -508.341 1370 255 255 255
-354.884 4.38641 1447 255 255 255
-418.484 -110.889 1409 255 255 255
-244.628 116.034 1465 255 255 255
368.372 128.392 1454 255 255 255
583.13 -206.738 1390 255 255 255
-428.487 -139.196 1400 255 255 255
486.673 -603.773 1348 255 255 255
-373.152 -570.192 1370 255 255 255
-450.73 -336.653 1410 255 255 255
269.365 -767.682 1305 255 255 255
590.544 -283.726 1383 255 255 255
-427.56 -454.647 1394 255 255 255
302.884 -761.738 1394 255 255 255
-401.46 -70.6128 1415 255 255 255
-438.504 -175.346 1410 255 255 255
-342.519 21.9002 1446 255 255 255
-388.449 -543.52 1365 255 255 255
496.417 -589.503 1343 255 255 255
-124.176 188.023 1436 255 255 255
-220.895 133.525 1465 255 255 255
313.507 162.917 1452 255 255 255
-445.092 -383.908 1404 255 255 255
590.816 -295.623 1382 255 255 255
590.75 -301.472 1381 255 255 255
586.447 -361.272 1377 255 255 255
-413.382 -492.98 1379 255 255 255
590.632 -277.887 1384 255 255 255
336.225 150.828 1446 255 255 255
590.89 -289.776 1383 255 255 255
590.691 -307.324 1380 255 255 255
515.394 -24.488 1391 255 255 255
546.929 -499.078 1347 255 255 255
325.095 156.97 1450 255 255 255
-433.279 -436.821 1396 255 255 255
-150.02 174.13 1464 255 255 255
-439.31 -413.425 1400 255 255 255
-396.131 -59.1499 1418 255 255 255
-450.712 -342.52 1409 255 255 255
-442.637 -192.013 1402 255 255 255
-421.888 -472.546 1392 255 255 255
573.817 -425.539 1366 255 255 255
-203.287 145.269 1466 255 255 255
-407.374 -82.1709 1414 255 255 255
395.766 110.091 1442 255 255 255
561.075 -465.972 1358 255 255 255
354.788 139.501 1448 255 255 255
572.3 -154.196 1400 255 255 255
567.244 -448.56 1361 255 255 255
591.067 -313.406 1380 255 255 255
-393.003 -535.95 1361 255 255 255
579.823 -184.09 1400 255 255 255
-238.698 121.883 1465 255 255 255
590.83 -266.214 1386 255 255 255
591.154 -272.246 1386 255 255 255
302.339 169.111 1456 255 255 255
291.779 -763.331 1332 255 255 255
-450.699 -348.39 1408 255 255 255
559.041 -112.771 1402 255 255 255
583.31 -200.934 1391 255 255 255
586.462 -367.18 1376 255 255 255
580.101 -402.251 1370 255 255 255
554.98 -483.426 1355 255 255 255
509.311 -13.101 1409 255 255 255
-83.4831 204.052 1428 255 255 255
-445.117 -389.814 1403 255 255 255
-428.067 -133.325 1399 255 255 255
-405.02 -513.208 1366 255 255 255
-354.422 -601.678 1386 255 255 255
554.42 -100.218 1391 255 255 255
379.84 122.379 1451 255 255 255
-162.214 168.779 1468 255 255 255
590.939 -260.379 1387 255 255 255
-413.316 -93.7428 1413 255 255 255
-255.864 109.936 1461 255 255 255
591.451 -319.499 1380 255 255 255
502.206 -583.514 1343 255 255 255
-446.773 -208.571 1394 255 255 255
-174.014 162.959 1468 255 255 255
-450.692 -354.265 1407 255 255 255
-438.668 -169.613 1411 255 255 255
565.946 -130.588 1402 255 255 255
389.957 115.982 1443 255 255 255
-453.15 -264.071 1408 255 255 255
-348.815 16.0805 1447 255 255 255
-361.227 -1.46735 1448 255 255 255
348.294 145.117 1446 255 255 255
545.89 -503.972 1343 255 255 255
-439.362 -419.359 1399 255 255 255
-452.918 -258.103 1408 255 255 255
-185.704 157.036 1467 255 255 255
513.844 -18.8794 1404 255 255 255
591.056 -254.544 1388 255 255 255
-371.164 -19.2587 1463 255 255 255
-453.71 -270.24 1409 255 255 255
557.724 -106.66 1399 255 255 255
498.424 4.38431 1414 255 255 255
579.613 -178.135 1400 255 255 255
586.485 -373.092 1375 255 255 255
-427.648 -460.627 1393 255 255 255
-215.138 139.469 1466 255 255 255
-418.694 -105.181 1410 255 255 255
-336.034 33.5177 1444 255 255 255
-452.692 -252.144 1408 255 255 255
590.754 -248.532 1388 255 255 255
-433.352 -442.778 1395 255 255 255
-232.775 127.731 1465 255 255 255
-143.779 179.502 1460 255 255 255
591.843 -325.604 1380 255 255 255
573.912 -431.5 1365 255 255 255
483.389 -613.004 1355 255 255 255
-454.275 -276.427 1410 255 255 255
507.25 -576.682 1341 255 255 255
511.523 -569.033 1337 255 255 255
-450.69 -360.143 1406 255 255 255
-454.524 -282.432 1410 255 255 255
-413.202 -498.614 1377 255 255 255
-452.471 -246.194 1408 255 255 255
-367.883 -582.863 1370 255 255 255
-446.592 -202.735 1394 255 255 255
-445.148 -395.725 1402 255 255 255
515.772 -561.435 1333 255 255 255
-454.779 -288.447 1410 255 255 255
-379.421 -564.929 1372 255 255 255
-423.481 -116.439 1405 255 255 255
580.167 -408.191 1369 255 255 255
-427.346 -127.376 1397 255 255 255
-448.884 -215.337 1400 255 255 255
572.536 -148.382 1401 255 255 255
-421.991 -478.55 1391 255 255 255
590.885 -242.703 1389 255 255 255
-452.256 -240.252 1408 255 255 255
-197.531 151.228 1467 255 255 255
-369.378 -13.2693 1456 255 255 255
494.902 10.2674 1422 255 255 255
374.022 128.305 1452 255 255 255
-268.764 105.78 1403 255 255 255
567.367 -454.541 1360 255 255 255
-401.692 -64.8859 1416 255 255 255
426.175 86.8188 1441 255 255 255
319.348 162.901 1451 255 255 255
-270.245 104.175 1381 255 255 255
413.599 98.3994 1440 255 255 255
-444.052 -186.833 1407 255 255 255
420.022 92.6458 1441 255 255 255
586.515 -379.011 1374 255 255 255
592.243 -331.721 1380 255 255 255
-455.362 -294.681 1411 255 255 255
-450.693 -366.026 1405 255 255 255
446.505 -658.066 1437 255 255 255
584.334 -195.41 1394 255 255 255
590.598 -236.704 1389 255 255 255
330.94 156.958 1449 255 255 255
579.41 -172.185 1400 255 255 255
554.733 -489.086 1353 255 255 255
-407.6 -76.4469 1415 255 255 255
-123.269 192.349 1425 255 255 255
-250.448 116.008 1464 255 255 255
432.646 81.0424 1442 255 255 255
-398.701 -529.989 1361 255 255 255
-438.837 -163.877 1412 255 255 255
544.856 -508.85 1339 255 255 255
561.631 -472.319 1358 255 255 255
504.04 -1.45011 1412 255 255 255
-404.562 -518.437 1363 255 255 255
-439.419 -425.3 1398 255 255 255
-266.923 107.308 1424 255 255 255
-450.68 -222.003 1405 255 255 255
-355.135 10.2458 1448 255 255 255
-373.324 -576.319 1369 255 255 255
-363.76 -591.585 1376 255 255 255
342.302 150.924 1446 255 255 255
-452.367 -234.485 1409 255 255 255
-260.778 109.537 1455 255 255 255
407.211 -688.751 1482 255 255 255
-226.859 133.58 1465 255 255 255
-137.383 184.592 1454 255 255 255
-445.184 -401.642 1401 255 255 255
-413.244 -87.9586 1413 255 255 255
-455.951 -300.934 1412 255 255 255
407.767 104.285 1441 255 255 255
439.144 75.252 1443 255 255 255
-342.536 27.7425 1446 255 255 255
-209.237 145.324 1466 255 255 255
-156.238 174.535 1467 255 255 255
566.206 -124.776 1403 255 255 255
308.398 169.207 1456 255 255 255
384.953 122.13 1447 255 255 255
592.651 -337.851 1380 255 255 255
-396.927 -53.4864 1421 255 255 255
-433.43 -448.743 1394 255 255 255
590.744 -230.88 1390 255 255 255
580.241 -414.138 1368 255 255 255
-452.162 -228.556 1409 255 255 255
586.553 -384.934 1373 255 255 255
-447.377 -197.33 1397 255 255 255
572.37 -142.464 1401 255 255 255
-451.024 -372.178 1405 255 255 255
477.078 -626.252 1372 255 255 255
-385.15 -558.852 1372 255 255 255
-168.252 168.945 1469 255 255 255
-418.908 -99.4687 1411 255 255 255
-264.735 108.761 1444 255 255 255
-456.546 -307.206 1413 255 255 255
592.638 -343.744 1379 255 255 255
579.214 -166.242 1400 255 255 255
574.435 -437.789 1365 255 255 255
497.051 -596.143 1343 255 255 255
-179.946 163.011 1468 255 255 255
-428.048 -466.951 1393 255 255 255
-130.765 189.246 1445 255 255 255
-413.026 -504.249 1375 255 255 255
-244.681 121.936 1465 255 255 255
401.942 110.174 1442 255 255 255
520.199 -24.4423 1387 255 255 255
-360.979 4.38963 1447 255 255 255
-368.356 -7.35238 1452 255 255 255
586.171 -390.579 1371 255 255 255
543.827 -513.709 1335 255 255 255
590.896 -225.055 1391 255 255 255
-427.854 -121.796 1399 255 255 255
554.082 -494.379 1350 255 255 255
-456.824 -313.276 1413 255 255 255
-191.642 157.09 1467 255 255 255
-74.5369 205.153 1478 255 255 255
567.497 -460.53 1359 255 255 255
-445.226 -407.565 1400 255 255 255
-439.482 -431.249 1397 255 255 255
-439.011 -158.139 1413 255 255 255
-422.099 -484.564 1390 255 255 255
-335.359 39.2685 1441 255 255 255
-423.991 -110.822 1407 255 255 255
-444.839 -181.361 1410 255 255 255
590.206 -218.915 1390 255 255 255
510.024 -7.28465 1411 255 255 255
592.631 -349.642 1378 255 255 255
561.367 -477.98 1356 255 255 255
-451.038 -378.075 1404 255 255 255
585.366 -189.867 1397 255 255 255
286.385 -770.619 1333 255 255 255
-348.828 21.9298 1447 255 255 255
565.666 -118.79 1402 255 255 255
589.524 -212.792 1389 255 255 255
592.202 -355.285 1376 255 255 255
502.467 -589.699 1342 255 255 255
-221.101 139.525 1466 255 255 255
558.441 -99.8971 1385 255 255 255
269.211 -773.043 1302 255 255 255
297.607 175.673 1462 255 255 255
580.322 -420.092 1367 255 255 255
-390.315 -551.987 1370 255 255 255
396.125 116.068 1443 255 255 255
-238.752 127.786 1465 255 255 255
336.554 156.84 1447 255 255 255
-457.431 -319.584 1414 255 255 255
354.883 145.414 1448 255 255 255
572.211 -136.551 1401 255 255 255
574.124 -443.445 1363 255 255 255
-407.831 -70.7174 1416 255 255 255
379.667 128.219 1450 255 255 255
-379.591 -571.053 1371 255 255 255
325.416 162.999 1451 255 255 255
-203.48 151.283 1467 255 255 255
514.926 -13.095 1407 255 255 255
493.465 -604.857 1349 255 255 255
589.274 -206.834 1389 255 255 255
-457.397 -325.451 1413 255 255 255
586.223 -396.509 1370 255 255 255
-150.171 180.165 1465 255 255 255
-438.569 -152.182 1412 255 255 255
592.21 -361.187 1375 255 255 255
579.439 -160.419 1401 255 255 255
-394.89 -544.361 1366 255 255 255
553.026 -499.294 1346 255 255 255
-402.495 -59.2365 1419 255 255 255
-433.825 -455.042 1394 255 255 255
315.331 -762.173 1393 255 255 255
-445.273 -413.495 1399 255 255 255
424.361 -678.931 1473 255 255 255
512.156 -575.595 1337 255 255 255
-457.369 -331.32 1412 255 255 255
-412.555 -509.513 1372 255 255 255
-256.092 115.903 1462 255 255 255
516.404 -567.962 1333 255 255 255
314.252 169.189 1455 255 255 255
-413.762 -82.2937 1415 255 255 255
362.651 140.27 1455 255 255 255
447.52 69.7357 1450 255 255 255
-405.001 -524.814 1363 255 255 255
-421.605 -489.881 1387 255 255 255
-451.38 -384.251 1404 255 255 255
-451.632 -208.157 1390 255 255 255
-428.147 -472.952 1392 255 255 255
562.589 -106.474 1395 255 255 255
-360.631 -602.119 1386 255 255 255
519.448 -18.8712 1402 255 255 255
-437.511 -146.031 1409 255 255 255
-457.346 -337.194 1411 255 255 255
-445.316 -175.745 1412 255 255 255
565.132 -112.817 1401 255 255 255
-419.127 -93.7513 1412 255 255 255
-449.127 -192.318 1403 255 255 255
508.264 -583.715 1342 255 255 255
504.399 4.38597 1413 255 255 255
-355.144 16.1025 1448 255 255 255
425.953 92.6562 1440 255 255 255
-69.1792 206.792 1490 255 255 255
-439.865 -437.517 1397 255 255 255
585.984 -184.174 1399 255 255 255
-162.375 174.824 1469 255 255 255
-232.83 133.636 1465 255 255 255
521.021 -560.802 1330 255 255 255
390.585 122.05 1445 255 255 255
597.585 -284.276 1384 255 255 255
580.411 -426.054 1366 255 255 255
-436.148 -139.811 1405 255 255 255
-174.185 168.997 1469 255 255 255
589.456 -201.028 1390 255 255 255
-457.328 -343.07 1410 255 255 255
432.415 86.8899 1441 255 255 255
597.863 -296.197 1383 255 255 255
597.797 -302.059 1382 255 255 255
-215.341 145.479 1467 255 255 255
597.673 -278.425 1385 255 255 255
592.657 -367.361 1375 255 255 255
-456.991 -348.703 1408 255 255 255
597.936 -290.339 1384 255 255 255
-185.884 163.065 1468 255 255 255
-342.556 33.5857 1446 255 255 255
-367.846 -1.47006 1450 255 255 255
-269.012 111.525 1404 255 255 255
420.099 98.5459 1441 255 255 255
-428.672 -116.286 1402 255 255 255
568.052 -466.871 1359 255 255 255
579.257 -154.483 1401 255 255 255
-424.505 -105.192 1409 255 255 255
-453.772 -214.913 1396 255 255 255
561.526 -483.999 1355 255 255 255
-270.693 109.914 1383 255 255 255
551.976 -504.191 1342 255 255 255
597.769 -272.576 1386 255 255 255
438.905 81.1098 1442 255 255 255
-400.024 -537.574 1364 255 255 255
500.899 10.2706 1421 255 255 255
370.743 135.16 1463 255 255 255
586.711 -402.741 1370 255 255 255
574.241 -449.429 1362 255 255 255
349.114 151.336 1449 255 255 255
598.171 -308.145 1382 255 255 255
413.966 104.367 1441 255 255 255
-374.046 -583.312 1370 255 255 255
572.468 -130.736 1402 255 255 255
445.113 75.2634 1442 255 255 255
-250.502 121.908 1464 255 255 255
-197.587 157.145 1467 255 255 255
-435.101 -133.724 1402 255 255 255
-451.728 -390.44 1404 255 255 255
-456.985 -354.583 1407 255 255 255
597.871 -266.728 1387 255 255 255
-459.4 -264.307 1408 255 255 255
-445.167 -169.879 1412 255 255 255
597.55 -260.694 1387 255 255 255
374.371 134.33 1453 255 255 255
-445.645 -419.731 1399 255 255 255
-267.166 113.135 1425 255 255 255
-369.406 -591.174 1374 255 255 255
-459.165 -258.334 1408 255 255 255
597.237 -254.669 1387 255 255 255
-260.832 115.403 1455 255 255 255
-433.914 -461.028 1393 255 255 255
-144.024 185.655 1462 255 255 255
598.076 -319.89 1380 255 255 255
-452.423 -202.769 1393 255 255 255
-460.215 -276.479 1409 255 255 255
-459.968 -270.482 1409 255 255 255
303.682 175.771 1462 255 255 255
592.681 -373.277 1374 255 255 255
-412.088 -514.77 1369 255 255 255
490.2 -614.095 1356 255 255 255
-460.467 -282.485 1409 255 255 255
-458.935 -252.369 1408 255 255 255
598.553 -314.243 1382 255 255 255
-460.726 -288.501 1409 255 255 255
-385.879 -565.788 1373 255 255 255
-421.419 -495.547 1385 255 255 255
307.133 -766.249 1348 255 255 255
-433.749 -127.574 1398 255 255 255
408.133 110.259 1442 255 255 255
550.519 -508.689 1337 255 255 255
-458.711 -246.413 1408 255 255 255
-456.983 -360.467 1406 255 255 255
385.043 128.046 1447 255 255 255
-439.94 -443.485 1396 255 255 255
331.267 162.987 1450 255 255 255
597.362 -248.832 1388 255 255 255
-361.483 10.26 1449 255 255 255
-227.07 139.582 1466 255 255 255
580.508 -432.022 1365 255 255 255
590.067 -195.361 1392 255 255 255
586.609 -178.47 1401 255 255 255
-348.844 27.7799 1447 255 255 255
598.473 -326.003 1380 255 255 255
510.743 -1.452 1413 255 255 255
-456.243 -221.884 1403 255 255 255
342.638 156.94 1447 255 255 255
-264.79 114.586 1444 255 255 255
-458.492 -240.466 1408 255 255 255
-461.317 -294.737 1410 255 255 255
316.926 -763.496 1368 255 255 255
320.108 169.173 1454 255 255 255
-451.76 -396.362 1403 255 255 255
-209.436 151.34 1467 255 255 255
562.02 -99.5043 1378 255 255 255
586.78 -408.689 1369 255 255 255
-428.56 -479.307 1392 255 255 255
-408.642 -65.0736 1419 255 255 255
-130.54 194.689 1442 255 255 255
402.029 116.075 1442 255 255 255
592.712 -379.198 1373 255 255 255
-419.351 -88.0289 1413 255 255 255
598.444 -331.887 1379 255 255 255
-244.737 127.843 1465 255 255 255
-414.284 -76.6151 1417 255 255 255
-137.524 190.603 1455 255 255 255
-461.587 -300.779 1410 255 255 255
579.496 -148.659 1402 255 255 255
-450.561 -187.129 1408 255 255 255
597.494 -242.996 1389 255 255 255
525.746 -24.4321 1385 255 255 255
561.277 -489.666 1353 255 255 255
-445.338 -164.134 1413 255 255 255
-445.704 -425.678 1398 255 255 255
396.143 -704.764 1487 255 255 255
568.198 -472.884 1358 255 255 255
597.203 -236.989 1389 255 255 255
-156.502 180.707 1469 255 255 255
-458.604 -234.694 1409 255 255 255
-457.313 -366.617 1406 255 255 255
-380.043 -577.613 1371 255 255 255
-453.219 -197.363 1396 255 255 255
586.403 -172.509 1401 255 255 255
572.731 -124.917 1403 255 255 255
-168.419 174.995 1470 255 255 255
-180.123 169.052 1469 255 255 255
-462.191 -307.048 1411 255 255 255
516.015 -7.28634 1410 255 255 255
-405.743 -531.602 1364 255 255 255
-425.023 -99.5495 1411 255 255 255
503.485 -596.787 1343 255 255 255
598.858 -338.021 1379 255 255 255
574.789 -455.757 1362 255 255 255
-429.495 -110.756 1405 255 255 255
-80.103 210.165 1471 255 255 255
-458.396 -228.76 1409 255 255 255
-451.798 -402.289 1402 255 255 255
-377.341 -13.342 1463 255 255 255
592.751 -385.125 1372 255 255 255
403.174 -699.315 1490 255 255 255
-191.828 163.121 1468 255 255 255
-221.158 145.438 1466 255 255 255
-433.643 -121.811 1398 255 255 255
483.931 -627.344 1373 255 255 255
517.045 -574.514 1333 255 255 255
-367.594 4.39907 1449 255 255 255
-355.156 21.9597 1448 255 255 255
-440.02 -449.46 1395 255 255 255
597.349 -231.158 1390 255 255 255
-342.105 39.3755 1444 255 255 255
-238.809 133.694 1465 255 255 255
-434.321 -467.357 1393 255 255 255
523.927 -18.8228 1397 255 255 255
586.856 -414.644 1368 255 255 255
-421.238 -501.214 1383 255 255 255
-457.323 -372.514 1405 255 255 255
-411.927 -520.399 1367 255 255 255
396.489 122.057 1444 255 255 255
598.844 -343.917 1378 255 255 255
560.204 -494.6 1349 255 255 255
453.53 69.7474 1449 255 255 255
309.557 175.751 1461 255 255 255
-391.905 -560.116 1374 255 255 255
579.327 -142.729 1402 255 255 255
-462.8 -313.338 1412 255 255 255
598.404 -349.564 1376 255 255 255
315.356 -765.729 1359 255 255 255
-445.199 -158.274 1413 255 255 255
521.661 -567.324 1330 255 255 255
581.039 -438.32 1365 255 255 255
597.073 -225.164 1390 255 255 255
592.365 -390.773 1370 255 255 255
508.908 -590.342 1342 255 255 255
380.023 134.24 1451 255 255 255
-445.768 -431.632 1397 255 255 255
596.375 -219.021 1389 255 255 255
389.926 -711.646 1487 255 255 255
-375.529 -7.37737 1456 255 255 255
336.888 162.864 1448 255 255 255
591.534 -189.956 1396 255 255 255
513.565 -583.053 1339 255 255 255
-203.676 157.31 1468 255 255 255
-256.323 121.882 1463 255 255 255
-451.359 -181.648 1411 255 255 255
521.284 -13.1078 1407 255 255 255
-428.67 -485.331 1391 255 255 255
572.184 -118.924 1402 255 255 255
595.685 -212.894 1388 255 255 255
567.933 -478.553 1356 255 255 255
-451.841 -408.222 1401 255 255 255
586.623 -166.673 1402 255 255 255
558.721 -499.146 1344 255 255 255
432.49 92.7965 1441 255 255 255
-366.59 -602.134 1385 255 255 255
499.917 -605.502 1349 255 255 255
438.671 86.9622 1441 255 255 255
567.848 -106.365 1392 255 255 255
426.326 98.6255 1441 255 255 255
-444.435 -152.204 1411 255 255 255
595.003 -206.784 1387 255 255 255
325.966 169.158 1453 255 255 255
574.5 -461.424 1360 255 255 255
444.871 81.1221 1441 255 255 255
390.678 127.963 1445 255 255 255
-457.664 -378.686 1405 255 255 255
-361.243 16.1136 1448 255 255 255
420.18 104.45 1441 255 255 255
598.84 -355.723 1376 255 255 255
-397.076 -553.244 1372 255 255 255
-419.876 -82.3594 1415 255 255 255
-269.262 117.281 1405 255 255 255
586.939 -420.606 1367 255 255 255
-463.744 -319.873 1414 255 255 255
-233.047 139.641 1466 255 255 255
570.828 -112.783 1399 255 255 255
-271.144 115.672 1385 255 255 255
592.419 -396.707 1369 255 255 255
-414.81 -70.9228 1419 255 255 255
-386.334 -572.34 1373 255 255 255
-443.362 -146.052 1408 255 255 255
-420.758 -506.515 1380 255 255 255
-457.461 -208.195 1389 255 255 255
580.725 -443.983 1363 255 255 255
-463.71 -325.746 1413 255 255 255
579.166 -136.805 1402 255 255 255
451.402 75.3279 1442 255 255 255
-425.245 -93.8275 1412 255 255 255
-451.202 -175.774 1411 255 255 255
594.757 -200.834 1387 255 255 255
511.107 4.39397 1414 255 255 255
-150.631 186.594 1469 255 255 255
506.905 10.2739 1420 255 255 255
-215.546 151.502 1468 255 255 255
414.338 110.345 1442 255 255 255
-430.017 -105.13 1407 255 255 255
-463.682 -331.621 1412 255 255 255
-434.163 -116.218 1400 255 255 255
-174.358 175.05 1470 255 255 255
-440.421 -455.77 1395 255 255 255
-349.106 33.6541 1448 255 255 255
598.849 -361.633 1375 255 255 255
378.493 -720.924 1493 255 255 255
-267.412 118.973 1426 255 255 255
-457.686 -384.598 1404 255 255 255
586.431 -160.721 1402 255 255 255
-186.067 169.108 1469 255 255 255
-451.89 -414.162 1400 255 255 255
-162.649 181.005 1471 255 255 255
-250.731 127.901 1465 255 255 255
557.658 -504.04 1340 255 255 255
320.809 -766.73 1387 255 255 255
315.217 175.612 1459 255 255 255
-401.942 -546.007 1369 255 255 255
-442.294 -139.93 1405 255 255 255
356.698 152.063 1455 255 255 255
-459.3 -214.798 1394 255 255 255
-434.734 -473.705 1393 255 255 255
-261.068 121.356 1456 255 255 255
-375.322 -591.199 1373 255 255 255
-446.158 -437.907 1397 255 255 255
408.221 116.165 1442 255 255 255
-455.642 -192.625 1404 255 255 255
-197.779 163.179 1468 255 255 255
592.582 -184.391 1399 255 255 255
567.675 -484.222 1354 255 255 255
-463.988 -337.739 1412 255 255 255
349.697 157.476 1451 255 255 255
299.334 182.632 1470 255 255 255
592.48 -402.648 1368 255 255 255
598.866 -367.547 1374 255 255 255
587.03 -426.575 1366 255 255 255
-354.928 27.7985 1447 255 255 255
-451.05 -169.906 1411 255 255 255
-457.933 -202.661 1391 255 255 255
-380.501 -584.195 1371 255 255 255
-428.787 -491.365 1390 255 255 255
-367.599 10.2673 1449 255 255 255
-375.01 -1.47481 1454 255 255 255
