ply
format ascii 1.0
element vertex 1416
property float x
property float y
property float z
property uchar diffuse_red
property uchar diffuse_green
property uchar diffuse_blue
end_header
-595.938 -127.173 1067 255 255 255
58.9766 -661.727 970 255 255 255
-595.179 -122.349 1066 255 255 255
622.887 -538.301 1346 255 255 255
-522.336 -198.54 982 255 255 255
-520.972 -193.74 980 255 255 255
-604.895 -263.2 1099 255 255 255
731.153 54.0534 1437 255 255 255
-591.5 -295.325 1090 255 255 255
68.025 -664.032 973 255 255 255
150.441 -473.843 847 255 255 255
408.387 -633.234 1106 255 255 255
63.46 -662.534 971 255 255 255
190.179 -472.571 856 255 255 255
714.753 101.986 1417 255 255 255
342.347 -638.752 1055 255 255 255
-49.7446 -713.203 1028 255 255 255
-44.8329 -709.637 1023 255 255 255
165.824 -471.489 849 255 255 255
114.419 -497.817 853 255 255 255
699.68 136.752 1399 255 255 255
-40.008 -706.776 1019 255 255 255
-523.176 -203.159 983 255 255 255
458.872 -631.168 1161 255 255 255
727.123 -324.168 1391 255 255 255
283.837 -638.966 1017 255 255 255
-54.6511 -716.085 1032 255 255 255
635.929 200.764 1265 255 255 255
611.035 -556.271 1345 255 255 255
-35.1864 -703.231 1014 255 255 255
305.238 -650.387 1042 255 255 255
72.4621 -664.174 973 255 255 255
37.3757 -673.869 980 255 255 255
143.079 -477.864 847 255 255 255
-654.409 -429.268 1333 255 255 255
135.877 -482.489 848 255 255 255
316.508 -649.316 1048 255 255 255
194.308 -473.432 857 255 255 255
128.656 -487.162 849 255 255 255
207.516 -477.72 863 255 255 255
-30.4118 -699.696 1009 255 255 255
-653.099 -438.184 1343 255 255 255
-664.824 -395.694 1319 255 255 255
229.097 -499.109 882 255 255 255
574.429 -603.159 1340 255 255 255
401.428 -635.178 1100 255 255 255
-602.22 -322.949 1117 255 255 255
-593.709 -279.627 1086 255 255 255
598.39 -573.489 1342 255 255 255
292.96 -648.932 1032 255 255 255
76.9021 -664.326 973 255 255 255
373.145 -635.993 1075 255 255 255
-527.341 -181.611 984 255 255 255
121.415 -491.881 850 255 255 255
635.784 -521.197 1349 255 255 255
100.543 -515.187 860 255 255 255
666.916 -468.309 1355 255 255 255
198.453 -474.3 858 255 255 255
-25.6841 -696.172 1004 255 255 255
326.662 -645.775 1050 255 255 255
202.851 -475.729 860 255 255 255
-661.225 -408.651 1323 255 255 255
-656.64 -421.078 1325 255 255 255
353.332 -636.468 1059 255 255 255
643.597 -510.706 1354 255 255 255
41.71 -671.887 977 255 255 255
569.784 -610.525 1343 255 255 255
468.322 -631.582 1172 255 255 255
-222.455 355.647 988 255 255 255
666.812 167.543 1304 255 255 255
103.724 -508.293 856 255 255 255
154.064 -473.531 846 255 255 255
-592.513 -300.661 1091 255 255 255
81.3452 -664.487 973 255 255 255
-21.024 -693.351 1000 255 255 255
657.993 -488.531 1361 255 255 255
-665.966 -378.158 1297 255 255 255
580.362 -597.174 1340 255 255 255
-670.375 -264.805 1222 255 255 255
-600.363 -266.044 1090 255 255 255
475.453 -628.708 1177 255 255 255
-666.452 -387.469 1310 255 255 255
731.237 60.2343 1437 255 255 255
169.457 -471.204 848 255 255 255
394.164 -636.504 1093 255 255 255
-217.065 353.626 983 255 255 255
628.979 -532.442 1346 255 255 255
-535.7 -174.333 991 255 255 255
-16.4013 -690.539 996 255 255 255
714.401 108.02 1416 255 255 255
-533.991 -210.02 993 255 255 255
110.8 -502.243 853 255 255 255
336.876 -642.258 1052 255 255 255
674.027 -457.101 1358 255 255 255
617.086 -550.379 1345 255 255 255
689.783 -433.255 1382 255 255 255
-11.8275 -688.431 993 255 255 255
661.819 -480.926 1356 255 255 255
651.962 -500.545 1360 255 255 255
-664.094 -272.978 1209 255 255 255
-668.605 -269.469 1218 255 255 255
-526.016 -185.443 981 255 255 255
727.618 -330.48 1391 255 255 255
-659.32 -413.274 1318 255 255 255
-7.28897 -687.025 991 255 255 255
-592.516 -283.856 1083 255 255 255
366.131 -637.172 1068 255 255 255
45.9714 -669.226 973 255 255 255
452.523 -124.261 893 255 255 255
85.6153 -663.29 971 255 255 255
445.692 -127.265 888 255 255 255
586.309 -591.204 1340 255 255 255
146.533 -476.973 845 255 255 255
-663.893 -400.929 1316 255 255 255
437.522 -631.262 1130 255 255 255
117.816 -496.263 850 255 255 255
604.843 -567.992 1343 255 255 255
-2.76884 -685.629 989 255 255 255
720.413 -354.304 1387 255 255 255
429.56 -632.207 1122 255 255 255
173.293 -471.481 848 255 255 255
1.73468 -684.935 988 255 255 255
310.847 -652.208 1044 255 255 255
-653.646 -448.513 1357 255 255 255
687.418 -437.83 1376 255 255 255
385.896 -636.023 1083 255 255 255
124.922 -490.931 848 255 255 255
446.344 -631.371 1140 255 255 255
565.966 -618.854 1348 255 255 255
6.22915 -684.25 987 255 255 255
694.485 146.41 1374 255 255 255
-530.444 -204.301 987 255 255 255
157.685 -473.225 845 255 255 255
421.295 -632.529 1113 255 255 255
-594.08 -306.299 1093 255 255 255
-654.041 -434.884 1331 255 255 255
346.822 -638.16 1053 255 255 255
10.7148 -683.575 986 255 255 255
298.487 -650.744 1034 255 255 255
139.184 -481.01 845 255 255 255
177.345 -472.32 849 255 255 255
321.26 -649.284 1047 255 255 255
-525.77 -189.642 980 255 255 255
-598.037 -269.81 1085 255 255 255
-655.762 -426.335 1322 255 255 255
131.989 -485.657 846 255 255 255
15.1917 -682.909 985 255 255 255
92.5034 -558.512 884 255 255 255
-639.31 -265.785 1152 255 255 255
19.6802 -682.945 985 255 255 255
216.806 -485.244 867 255 255 255
-544.618 -212.467 1003 255 255 255
744.252 17.17 1449 255 255 255
97.4934 -526.914 864 255 255 255
50.25 -667.261 970 255 255 255
745.772 10.9604 1452 255 255 255
-527.982 -199.049 983 255 255 255
-526.603 -194.236 981 255 255 255
413.862 -633.933 1106 255 255 255
731.33 66.4174 1437 255 255 255
685.058 -442.366 1370 255 255 255
181.412 -473.167 850 255 255 255
702.458 -386.99 1345 255 255 255
592.271 -585.249 1340 255 255 255
236.105 -513.66 890 255 255 255
24.1449 -682.298 984 255 255 255
-612.531 -259.526 1103 255 255 255
-533.271 -177.855 986 255 255 255
623.155 -544.5 1345 255 255 255
331.748 -646.376 1050 255 255 255
161.495 -473.484 845 255 255 255
743.256 23.3706 1447 255 255 255
676.052 157.12 1310 255 255 255
-592.424 -288.602 1082 255 255 255
28.6015 -681.659 983 255 255 255
-652.655 -457.962 1368 255 255 255
89.6851 -660.736 967 255 255 255
-657.922 -418.186 1314 255 255 255
185.496 -474.021 851 255 255 255
-662.464 -405.844 1312 255 255 255
-666.519 -393.27 1309 255 255 255
642.882 -516.122 1351 255 255 255
378.423 -636.653 1075 255 255 255
696.137 -417.605 1369 255 255 255
457.239 -634.151 1155 255 255 255
358.843 -637.705 1060 255 255 255
714.562 114.13 1416 255 255 255
54.5597 -665.993 968 255 255 255
-653.444 -243.721 1170 255 255 255
-212.592 357.166 981 255 255 255
406.865 -635.87 1100 255 255 255
107.048 -506.1 852 255 255 255
-669.22 -256.918 1209 255 255 255
114.212 -500.669 850 255 255 255
-542.793 -170.869 995 255 255 255
-601.748 -118.06 1068 255 255 255
-596.744 -312.537 1097 255 255 255
33.0165 -680.336 981 255 255 255
-605.626 -142.355 1073 255 255 255
611.323 -562.501 1344 255 255 255
-666.46 -375.22 1285 255 255 255
189.596 -474.882 852 255 255 255
-600.816 -122.547 1066 255 255 255
-603.141 -137.084 1069 255 255 255
636.034 -527.376 1348 255 255 255
-601.019 -127.259 1066 255 255 255
-596.267 -273.794 1081 255 255 255
-601.794 -132.1 1067 255 255 255
341.665 -642.263 1051 255 255 255
-654.694 -445.17 1345 255 255 255
58.9143 -665.421 967 255 255 255
-667.562 -384.785 1299 255 255 255
683.203 -447.19 1365 255 255 255
742.782 29.5753 1446 255 255 255
-40.169 -714.291 1021 255 255 255
67.9538 -667.746 970 255 255 255
283.53 -642.892 1014 255 255 255
63.3931 -666.235 968 255 255 255
-45.0132 -717.178 1025 255 255 255
651.226 -505.985 1357 255 255 255
-35.3284 -710.715 1016 255 255 255
121.191 -494.714 847 255 255 255
-49.8957 -720.075 1029 255 255 255
193.713 -475.751 853 255 255 255
92.1728 -643.005 949 255 255 255
-531.928 -181.708 983 255 255 255
598.695 -579.742 1341 255 255 255
399.926 -637.773 1094 255 255 255
149.797 -475.522 842 255 255 255
450.171 -127.449 888 255 255 255
457.046 -124.442 893 255 255 255
37.3764 -678.328 978 255 255 255
-30.5348 -707.15 1011 255 255 255
-654.89 -431.581 1319 255 255 255
467.072 -635.177 1167 255 255 255
658.685 -495.063 1361 255 255 255
304.046 -652.567 1036 255 255 255
211.334 -481.537 861 255 255 255
315.581 -652.165 1043 255 255 255
128.265 -489.407 845 255 255 255
72.3862 -667.89 970 255 255 255
165.114 -473.19 844 255 255 255
-606.286 -261.704 1091 255 255 255
731.432 72.6031 1437 255 255 255
-592.34 -293.351 1081 255 255 255
695.749 -427.101 1381 255 255 255
-25.8138 -704.294 1007 255 255 255
221.942 -491.948 870 255 255 255
-538.319 -205.657 992 255 255 255
371.37 -637.825 1068 255 255 255
94.504 -539.448 869 255 255 255
103.541 -511.172 853 255 255 255
668.577 -475.475 1357 255 255 255
-661.041 -410.737 1308 255 255 255
197.847 -476.627 854 255 255 255
-656.529 -423.076 1310 255 255 255
202.234 -478.069 856 255 255 255
713.722 120.074 1414 255 255 255
629.242 -538.632 1345 255 255 255
142.469 -479.535 842 255 255 255
206.648 -479.519 858 255 255 255
228.178 -501.012 877 255 255 255
135.301 -484.158 843 255 255 255
-665.575 -398.468 1306 255 255 255
-21.1093 -700.749 1002 255 255 255
76.8216 -668.043 970 255 255 255
351.96 -638.79 1053 255 255 255
291.804 -651.046 1026 255 255 255
675.189 -463.893 1359 255 255 255
325.704 -648.64 1045 255 255 255
729.693 -337.532 1394 255 255 255
474.994 -633.413 1174 255 255 255
721.99 -361.175 1389 255 255 255
-601.055 -319.695 1104 255 255 255
730.015 78.6269 1434 255 255 255
391.598 -637.289 1084 255 255 255
580.689 -603.47 1339 255 255 255
-16.4678 -697.913 998 255 255 255
-595.054 -278.01 1078 255 255 255
41.6677 -675.636 974 255 255 255
168.932 -473.462 844 255 255 255
100.134 -516.885 855 255 255 255
81.2601 -668.205 970 255 255 255
-539.79 -174.254 989 255 255 255
676.289 162.838 1310 255 255 255
-11.8754 -695.786 995 255 255 255
617.828 -557.014 1345 255 255 255
-655.157 -441.493 1332 255 255 255
-530.591 -185.542 980 255 255 255
685.625 153.604 1329 255 255 255
336.207 -645.756 1048 255 255 255
153.404 -475.206 841 255 255 255
117.601 -499.101 847 255 255 255
-534.204 -199.765 985 255 255 255
-673.514 -263.926 1216 255 255 255
-7.31093 -693.668 992 255 255 255
663.484 -488.144 1358 255 255 255
427.981 -634.951 1116 255 255 255
436.699 -635.186 1126 255 255 255
715.331 -375.963 1373 255 255 255
605.145 -574.241 1342 255 255 255
-593.361 -298.655 1082 255 255 255
682.356 -452.651 1362 255 255 255
-726.264 -281.281 1512 255 255 255
586.632 -597.489 1339 255 255 255
-2.7769 -692.26 990 255 255 255
-532.269 -194.737 982 255 255 255
364.38 -638.953 1061 255 255 255
576.478 -611.288 1343 255 255 255
419.355 -634.642 1106 255 255 255
445.512 -635.348 1136 255 255 255
-601.708 -264.516 1082 255 255 255
-739.157 -177.184 1518 255 255 255
729.117 84.687 1432 255 255 255
-737.066 -193.052 1544 255 255 255
110.34 -503.912 848 255 255 255
-659.625 -415.609 1304 255 255 255
383.717 -637.324 1075 255 255 255
1.73872 -690.861 988 255 255 255
172.756 -473.741 844 255 255 255
743.858 35.8468 1448 255 255 255
-666.336 -371.986 1272 255 255 255
-215.96 355.928 977 255 255 255
-664.128 -403.344 1302 255 255 255
-530.343 -189.744 979 255 255 255
85.5252 -666.998 968 255 255 255
6.24254 -690.17 987 255 255 255
45.9242 -672.952 970 255 255 255
-738.873 -178.689 1533 255 255 255
-671.725 -268.571 1212 255 255 255
124.544 -493.171 844 255 255 255
157.196 -475.461 841 255 255 255
10.7374 -689.489 986 255 255 255
-737.764 -186.628 1546 255 255 255
565.025 -630.489 1360 255 255 255
-738.639 -185.189 1532 255 255 255
-735.013 -196.028 1572 255 255 255
346.13 -641.666 1049 255 255 255
309.638 -654.403 1038 255 255 255
713.395 126.094 1413 255 255 255
-655.644 -428.274 1307 255 255 255
-736.782 -188.065 1560 255 255 255
454.814 -635.99 1147 255 255 255
-548.299 -166.865 996 255 255 255
-668.654 -391.147 1300 255 255 255
138.755 -483.238 841 255 255 255
15.2236 -688.818 985 255 255 255
145.906 -478.634 840 255 255 255
643.126 -522.304 1350 255 255 255
412.321 -636.574 1100 255 255 255
-738.414 -191.687 1531 255 255 255
-739.406 -183.749 1518 255 255 255
623.432 -550.712 1344 255 255 255
-593.848 -282.21 1075 255 255 255
131.586 -487.888 842 255 255 255
-736.565 -194.666 1559 255 255 255
-668.834 -272.737 1206 255 255 255
297.603 -653.507 1029 255 255 255
320.318 -652.131 1042 255 255 255
-668.587 -382.099 1288 255 255 255
19.7014 -688.155 984 255 255 255
-735.693 -189.501 1574 255 255 255
-733.826 -197.514 1586 255 255 255
-655.019 -437.48 1318 255 255 255
180.853 -475.442 846 255 255 255
50.2498 -671.664 968 255 255 255
650.978 -511.795 1355 255 255 255
635.82 -533.173 1346 255 255 255
-656.687 -456.587 1362 255 255 255
695.874 -433.259 1380 255 255 255
24.1708 -687.502 983 255 255 255
176.587 -474.026 844 255 255 255
-537.338 -177.773 984 255 255 255
674.987 168.177 1307 255 255 255
-594.391 -303.979 1083 255 255 255
215.909 -487.065 862 255 255 255
593.032 -591.965 1340 255 255 255
743.402 42.0498 1447 255 255 255
189.237 -477.735 849 255 255 255
-734.498 -190.936 1588 255 255 255
-739.665 -190.321 1518 255 255 255
-560.94 -210.885 1014 255 255 255
648.796 210.399 1290 255 255 255
330.776 -649.246 1045 255 255 255
-657.708 -420.138 1299 255 255 255
184.925 -476.304 847 255 255 255
28.6321 -686.858 982 255 255 255
376.271 -637.892 1067 255 255 255
405.344 -638.47 1094 255 255 255
89.6826 -665.111 965 255 255 255
-599.357 -268.252 1077 255 255 255
611.62 -568.745 1343 255 255 255
-545.176 -206.604 995 255 255 255
357.114 -639.43 1053 255 255 255
-737.952 -181.695 1563 255 255 255
728.736 90.7965 1431 255 255 255
-225.37 357.837 981 255 255 255
92.4568 -649.304 950 255 255 255
658.903 -501.248 1360 255 255 255
-220.201 356.151 977 255 255 255
-662.688 -408.198 1298 255 255 255
573.095 -620.078 1349 255 255 255
-211.943 360.18 977 255 255 255
-608.558 -118.474 1070 255 255 255
113.871 -502.918 846 255 255 255
106.731 -508.359 848 255 255 255
193.347 -478.612 850 255 255 255
234.913 -515.019 884 255 255 255
-646.006 -266.447 1153 255 255 255
453.646 -127.347 886 255 255 255
160.802 -475.157 840 255 255 255
-615.047 -258.533 1097 255 255 255
-655.202 -465.78 1372 255 255 255
33.0517 -685.523 980 255 255 255
54.5027 -669.69 965 255 255 255
120.968 -497.538 844 255 255 255
465.423 -638.198 1161 255 255 255
-739.425 -180.426 1550 255 255 255
-667.183 -396.005 1296 255 255 255
-741.05 -182.55 1506 255 255 255
96.9901 -528.011 858 255 255 255
712.573 132.017 1411 255 255 255
-732.991 -199.124 1601 255 255 255
-593.753 -286.928 1074 255 255 255
-737.303 -201.523 1560 255 255 255
697.555 151.706 1366 255 255 255
-625.542 -337.819 1148 255 255 255
701.161 -417.003 1365 255 255 255
128.026 -492.217 842 255 255 255
-656.685 -360.519 1229 255 255 255
340.661 -645.144 1046 255 255 255
-612.717 -147.635 1075 255 255 255
58.9137 -669.808 965 255 255 255
397.693 -639.155 1086 255 255 255
675.865 -470.368 1359 255 255 255
-664.518 -367.87 1256 255 255 255
-606.481 -122.747 1066 255 255 255
599.01 -586.011 1340 255 255 255
682.017 -458.439 1360 255 255 255
197.475 -479.496 851 255 255 255
-535.982 -181.624 981 255 255 255
629.514 -544.836 1344 255 255 255
63.3926 -670.629 966 255 255 255
-736.212 -203.062 1574 255 255 255
-40.3315 -721.868 1023 255 255 255
-606.117 -127.348 1065 255 255 255
-739.646 -198.572 1533 255 255 255
694.495 -438.469 1376 255 255 255
-35.4715 -718.261 1018 255 255 255
-738.764 -200.113 1547 255 255 255
-545.262 -170.28 990 255 255 255
-733.654 -192.489 1603 255 255 255
-45.195 -724.78 1027 255 255 255
-607.69 -137.051 1067 255 255 255
-609.059 -142.057 1069 255 255 255
-597.079 -310.182 1087 255 255 255
149.331 -477.739 838 255 255 255
-673.403 -256.482 1205 255 255 255
210.697 -483.888 857 255 255 255
282.667 -645.536 1009 255 255 255
-606.33 -132.068 1065 255 255 255
67.8833 -671.459 967 255 255 255
-30.6587 -714.664 1013 255 255 255
724.099 -368.344 1392 255 255 255
-739.13 -175.306 1566 255 255 255
-541.019 -200.689 988 255 255 255
-741.31 -189.079 1506 255 255 255
164.601 -475.425 840 255 255 255
100.078 -520.381 853 255 255 255
-556.617 -163.664 1002 255 255 255
-25.9187 -711.783 1009 255 255 255
-657.763 -453.201 1350 255 255 255
732.304 -344.872 1398 255 255 255
369.942 -640.214 1062 255 255 255
37.3778 -682.799 976 255 255 255
-731.588 -200.607 1615 255 255 255
670.251 -482.679 1359 255 255 255
314.655 -654.989 1038 255 255 255
-735.015 -204.599 1588 255 255 255
201.619 -480.388 852 255 255 255
-660.743 -412.713 1293 255 255 255
459.706 -127.967 889 255 255 255
-21.2163 -708.912 1005 255 255 255
700.321 -426.181 1376 255 255 255
302.855 -654.71 1030 255 255 255
206.022 -481.852 854 255 255 255
474.542 -638.115 1171 255 255 255
103.236 -513.436 849 255 255 255
-740.617 -174.084 1553 255 255 255
-597.011 -271.953 1072 255 255 255
72.3112 -671.604 967 255 255 255
-737.784 -183.312 1579 255 255 255
142.028 -481.749 838 255 255 255
-740.908 -197.159 1520 255 255 255
134.885 -486.375 839 255 255 255
466.861 -128.878 894 255 255 255
-655.771 -434.126 1306 255 255 255
221.034 -493.784 865 255 255 255
389.753 -639.192 1077 255 255 255
350.924 -641.688 1048 255 255 255
711.253 137.83 1408 255 255 255
76.8213 -672.453 968 255 255 255
-656.811 -425.293 1296 255 255 255
325.06 -652.106 1041 255 255 255
618.12 -563.253 1344 255 255 255
-16.5348 -705.346 1000 255 255 255
664.184 -494.673 1358 255 255 255
-537.969 -195.242 983 255 255 255
708.425 143.315 1402 255 255 255
-535.179 -185.644 979 255 255 255
722.577 -373.671 1388 255 255 255
290.934 -653.763 1021 255 255 255
-607.619 -260.208 1083 255 255 255
-736.565 -184.694 1593 255 255 255
-733.711 -206.134 1602 255 255 255
-593.666 -291.648 1073 255 255 255
-11.9237 -703.201 997 255 255 255
692.617 -443.336 1371 255 255 255
168.407 -475.699 840 255 255 255
-657.269 -448.802 1335 255 255 255
650.257 -517.225 1352 255 255 255
426.402 -637.66 1110 255 255 255
-666.234 -401.152 1293 255 255 255
-731.848 -207.54 1615 255 255 255
435.492 -638.527 1121 255 255 255
41.6688 -680.083 972 255 255 255
642.904 -528.107 1348 255 255 255
-7.3405 -701.065 994 255 255 255
605.455 -580.504 1341 255 255 255
-670.206 -388.721 1290 255 255 255
705.033 -409.729 1360 255 255 255
444.291 -638.746 1131 255 255 255
-535.476 -190.042 979 255 255 255
-743.102 -181.472 1495 255 255 255
152.927 -477.42 837 255 255 255
-543.332 -174.001 986 255 255 255
226.998 -502.307 871 255 255 255
-601.428 -317.305 1094 255 255 255
417.795 -637.288 1100 255 255 255
81.176 -671.922 967 255 255 255
335.22 -648.619 1043 255 255 255
110.142 -506.75 845 255 255 255
94.0234 -540.556 863 255 255 255
-651.835 -354.913 1208 255 255 255
117.248 -501.335 843 255 255 255
91.523 -556.502 873 255 255 255
-2.78502 -698.939 991 255 255 255
-670.052 -379.708 1278 255 255 255
124.314 -495.98 841 255 255 255
93.1335 -658.405 955 255 255 255
362.628 -640.688 1054 255 255 255
453.183 -638.892 1141 255 255 255
1.74463 -697.528 989 255 255 255
381.894 -639.165 1068 255 255 255
729.892 97.1039 1433 255 255 255
-742.563 -195.875 1508 255 255 255
727.491 102.928 1428 255 255 255
-676.06 -262.831 1209 255 255 255
-595.784 -276.135 1069 255 255 255
172.22 -475.98 840 255 255 255
-733.148 -194.161 1619 255 255 255
-659.315 -417.521 1289 255 255 255
658.646 -507.071 1358 255 255 255
131.34 -490.684 839 255 255 255
587.403 -604.241 1339 255 255 255
-743.363 -187.962 1495 255 255 255
6.25604 -696.127 987 255 255 255
710.368 -397.346 1359 255 255 255
636.087 -539.373 1345 255 255 255
677.307 174.427 1311 255 255 255
411.156 -639.763 1095 255 255 255
45.9249 -677.376 968 255 255 255
681.929 162.833 1308 255 255 255
176.249 -476.835 841 255 255 255
-664.261 -405.658 1288 255 255 255
624.184 -557.352 1344 255 255 255
10.7495 -694.734 985 255 255 255
345.11 -644.54 1044 255 255 255
85.4362 -670.705 965 255 255 255
-594.14 -296.647 1073 255 255 255
472.505 -129.361 896 255 255 255
145.453 -480.839 836 255 255 255
138.328 -485.446 837 255 255 255
-730.975 -202.338 1631 255 255 255
-215.075 358.557 972 255 255 255
15.2405 -694.057 984 255 255 255
-674.253 -267.452 1205 255 255 255
308.429 -656.561 1032 255 255 255
-602.995 -262.988 1074 255 255 255
-551.881 -166.628 993 255 255 255
180.294 -477.697 842 255 255 255
687.421 158.436 1319 255 255 255
-730.787 -209.202 1630 255 255 255
-739.882 -177.086 1584 255 255 255
-657.645 -445.071 1322 255 255 255
19.723 -693.389 983 255 255 255
156.519 -477.106 836 255 255 255
319.378 -654.954 1037 255 255 255
-736.156 -186.308 1609 255 255 255
-541.408 -177.693 982 255 255 255
296.72 -656.246 1024 255 255 255
583.197 -612.061 1343 255 255 255
593.36 -598.26 1339 255 255 255
463.375 -640.629 1154 255 255 255
215.265 -489.425 858 255 255 255
733.356 -351.507 1399 255 255 255
611.926 -575.003 1342 255 255 255
96.9395 -531.551 856 255 255 255
-548.443 -201.823 992 255 255 255
403.825 -641.035 1088 255 255 255
691.757 -448.83 1368 255 255 255
-669.238 -393.847 1287 255 255 255
678.527 167.655 1301 255 255 255
-671.333 -271.593 1199 255 255 255
-736.675 -211.84 1591 255 255 255
192.983 -481.463 847 255 255 255
24.1973 -692.73 982 255 255 255
-673.212 -249.126 1194 255 255 255
-656.427 -430.769 1294 255 255 255
188.656 -480.011 845 255 255 255
-738.357 -210.386 1578 255 255 255
50.1984 -675.377 965 255 255 255
184.355 -478.566 843 255 255 255
374.824 -640.279 1061 255 255 255
726.628 108.941 1426 255 255 255
-739.941 -208.931 1565 255 255 255
28.6633 -692.08 981 255 255 255
329.806 -652.091 1040 255 255 255
747.066 48.5126 1454 255 255 255
-595.121 -280.563 1067 255 255 255
-617.898 -330.99 1123 255 255 255
356.064 -642.333 1048 255 255 255
-745.076 -180.392 1484 255 255 255
683.194 -465.252 1361 255 255 255
-741.428 -207.475 1552 255 255 255
197.104 -482.356 848 255 255 255
677.049 -477.214 1360 255 255 255
89.5885 -668.801 962 255 255 255
-662.293 -410.133 1283 255 255 255
-657.893 -422.308 1285 255 255 255
160.301 -477.369 836 255 255 255
-615.992 -119.002 1073 255 255 255
113.53 -505.146 842 255 255 255
-735.356 -213.427 1605 255 255 255
106.415 -510.597 844 255 255 255
572.196 -631.724 1361 255 255 255
210.308 -486.789 854 255 255 255
-595.178 -301.939 1074 255 255 255
33.0876 -690.735 979 255 255 255
120.603 -499.757 840 255 255 255
395.825 -641.074 1079 255 255 255
54.5031 -674.087 963 255 255 255
-544.808 -196.15 986 255 255 255
-540.591 -181.726 980 255 255 255
-733.478 -214.879 1618 255 255 255
-742.818 -206.017 1539 255 255 255
630.265 -551.463 1344 255 255 255
127.637 -494.427 838 255 255 255
-745.338 -186.845 1484 255 255 255
339.985 -648.623 1042 255 255 255
201.241 -483.256 849 255 255 255
-732.517 -195.832 1635 255 255 255
58.914 -674.206 963 255 255 255
205.638 -484.733 851 255 255 255
-729.795 -203.943 1646 255 255 255
-600.058 -266.444 1068 255 255 255
473.283 -641.713 1166 255 255 255
-612.747 -123.065 1067 255 255 255
-745.126 -194.85 1498 255 255 255
-735.168 -187.804 1624 255 255 255
478.191 -129.847 898 255 255 255
-657.414 -440.998 1308 255 255 255
599.781 -592.737 1340 255 255 255
671.443 -489.563 1360 255 255 255
701.975 -433.269 1378 255 255 255
63.3932 -675.034 964 255 255 255
-540.884 -186.129 980 255 255 255
67.9544 -676.572 966 255 255 255
141.758 -484.522 835 255 255 255
-671.16 -385.991 1279 255 255 255
148.866 -479.935 834 255 255 255
-616.962 -257.305 1090 255 255 255
-649.915 -265.958 1149 255 255 255
-667.756 -398.65 1283 255 255 255
103.055 -516.291 846 255 255 255
134.631 -489.156 836 255 255 255
-35.6508 -726.58 1021 255 255 255
642.689 -533.913 1346 255 255 255
-729.61 -210.862 1645 255 255 255
164.089 -477.639 836 255 255 255
-30.814 -722.952 1016 255 255 255
676.696 172.822 1297 255 255 255
-670.384 -376.719 1266 255 255 255
-548.816 -170.036 987 255 255 255
-744.111 -204.558 1526 255 255 255
-26.0501 -720.046 1012 255 255 255
650.506 -523.422 1351 255 255 255
-541.737 -190.733 981 255 255 255
368.167 -641.958 1055 255 255 255
-40.4558 -728.795 1024 255 255 255
657.912 -512.517 1355 255 255 255
-611.232 -127.438 1064 255 255 255
99.7873 -522.649 849 255 255 255
-229.179 361.464 978 255 255 255
37.4181 -687.987 975 255 255 255
-21.3241 -717.15 1008 255 255 255
-218.849 358.044 970 255 255 255
618.422 -569.507 1343 255 255 255
-616.169 -147.33 1071 255 255 255
-614.203 -142.159 1068 255 255 255
-611.447 -132.163 1064 255 255 255
72.3869 -676.719 966 255 255 255
-594.465 -284.984 1065 255 255 255
-612.246 -137.021 1065 255 255 255
-666.116 -239.406 1171 255 255 255
387.544 -640.449 1069 255 255 255
233.453 -515.748 877 255 255 255
665.384 -501.591 1359 255 255 255
-731.952 -216.463 1632 255 255 255
-676.446 -255.621 1199 255 255 255
313.428 -657.151 1032 255 255 255
433.509 -640.694 1114 255 255 255
704.874 -425.265 1371 255 255 255
-16.619 -713.553 1003 255 255 255
301.959 -657.459 1025 255 255 255
424.441 -639.753 1103 255 255 255
-740.027 -178.752 1601 255 255 255
349.89 -644.562 1043 255 255 255
580.259 -621.315 1350 255 255 255
-597.334 -307.824 1077 255 255 255
-660.847 -414.902 1279 255 255 255
152.633 -480.188 834 255 255 255
93.5214 -665.515 957 255 255 255
76.8224 -676.875 966 255 255 255
-11.9724 -710.677 999 255 255 255
324.106 -654.928 1036 255 255 255
-661.673 -466.088 1371 255 255 255
443.073 -642.121 1126 255 255 255
726.792 115.103 1426 255 255 255
167.883 -477.916 836 255 255 255
605.775 -586.782 1340 255 255 255
691.41 -454.646 1366 255 255 255
220.125 -495.588 860 255 255 255
-7.37032 -708.523 996 255 255 255
-557.05 -203.37 998 255 255 255
-558.556 -162.946 996 255 255 255
416.616 -640.483 1095 255 255 255
124.084 -498.779 838 255 255 255
-665.76 -403.116 1278 255 255 255
-598.249 -270.364 1064 255 255 255
451.952 -642.324 1136 255 255 255
171.89 -478.771 837 255 255 255
-547.424 -173.926 984 255 255 255
-746.614 -193.565 1486 255 255 255
289.493 -655.163 1014 255 255 255
-745.798 -203.232 1514 255 255 255
41.6706 -684.542 970 255 255 255
-223.303 358.642 971 255 255 255
636.365 -545.586 1344 255 255 255
-657.502 -427.742 1283 255 255 255
334.556 -652.085 1039 255 255 255
-2.79326 -705.668 992 255 255 255
-731.318 -197.381 1650 255 255 255
109.814 -508.973 841 255 255 255
683.892 161.957 1299 255 255 255
81.177 -676.339 965 255 255 255
116.896 -503.548 839 255 255 255
-730.322 -218.046 1646 255 255 255
1.75059 -704.244 990 255 255 255
380.071 -640.958 1061 255 255 255
701.093 -438.797 1375 255 255 255
-747.234 -185.727 1473 255 255 255
-608.894 -258.71 1075 255 255 255
361.22 -642.988 1048 255 255 255
-594.375 -289.671 1064 255 255 255
624.481 -563.596 1343 255 255 255
145.176 -483.604 833 255 255 255
409.618 -642.338 1089 255 255 255
138.066 -488.218 834 255 255 255
748.685 54.8867 1457 255 255 255
-670.703 -391.381 1277 255 255 255
6.27609 -702.831 988 255 255 255
278.156 -639.762 991 255 255 255
-601.723 -314.912 1084 255 255 255
130.938 -492.879 835 255 255 255
461.328 -643.014 1147 255 255 255
93.6516 -542.255 858 255 255 255
156.218 -479.871 833 255 255 255
10.7836 -701.427 986 255 255 255
225.818 -503.56 865 255 255 255
-658.084 -437.595 1296 255 255 255
747.229 61.0369 1454 255 255 255
175.702 -479.061 837 255 255 255
-678.563 -261.736 1202 255 255 255
483.381 -130.192 899 255 255 255
680.455 166.747 1292 255 255 255
45.9265 -681.812 966 255 255 255
344.424 -648.012 1040 255 255 255
-659.407 -419.65 1275 255 255 255
85.437 -675.112 963 255 255 255
184.005 -481.38 840 255 255 255
15.2732 -700.032 984 255 255 255
-739.273 -219.391 1596 255 255 255
-635.653 -121.867 1097 255 255 255
612.242 -581.276 1341 255 255 255
735.993 -358.933 1403 255 255 255
179.736 -479.93 838 255 255 255
-747.396 -201.906 1502 255 255 255
402.306 -643.564 1082 255 255 255
106.351 -514.037 842 255 255 255
-664.29 -407.871 1274 255 255 255
19.7652 -699.358 983 255 255 255
-734.962 -189.529 1641 255 255 255
-545.481 -177.615 980 255 255 255
214.621 -491.764 854 255 255 255
307.52 -659.326 1027 255 255 255
-551.146 -196.864 988 255 255 255
-596.445 -274.258 1060 255 255 255
196.735 -485.205 845 255 255 255
192.392 -483.731 843 255 255 255
649.802 -528.847 1348 255 255 255
318.44 -657.751 1032 255 255 255
188.076 -482.265 841 255 255 255
24.2489 -698.694 982 255 255 255
159.993 -480.137 833 255 255 255
-735.571 -222.389 1622 255 255 255
-214.192 361.154 967 255 255 255
-729.378 -205.794 1663 255 255 255
296.129 -659.606 1020 255 255 255
373.378 -642.63 1055 255 255 255
-672.029 -383.259 1268 255 255 255
709.807 -418.548 1368 255 255 255
-742.109 -172.425 1606 255 255 255
-677.302 -266.555 1199 255 255 255
-741.448 -218.028 1584 255 255 255
671.659 -495.748 1359 255 255 255
-554.896 -166.225 989 255 255 255
726.965 121.269 1426 255 255 255
-594.851 -294.636 1064 255 255 255
-743.063 -216.527 1571 255 255 255
113.325 -507.96 839 255 255 255
594.142 -605.023 1339 255 255 255
-673.222 -270.223 1191 255 255 255
50.1998 -679.796 963 255 255 255
657.671 -518.339 1353 255 255 255
-737.928 -221.028 1610 255 255 255
684.884 -472.441 1363 255 255 255
329.155 -655.544 1036 255 255 255
28.6951 -697.328 980 255 255 255
-671.155 -374.025 1255 255 255 255
354.676 -644.593 1042 255 255 255
-566.985 -159.712 1002 255 255 255
-604.224 -261.458 1066 255 255 255
200.866 -486.114 846 255 255 255
-548.044 -191.429 983 255 255 255
-545.214 -181.832 979 255 255 255
127.4 -497.212 835 255 255 255
678.743 -484.445 1362 255 255 255
-613.905 -326.212 1105 255 255 255
205.256 -487.605 848 255 255 255
96.5499 -533.214 851 255 255 255
-676.192 -248.283 1188 255 255 255
393.956 -642.945 1072 255 255 255
-669.729 -396.456 1274 255 255 255
472.027 -645.288 1161 255 255 255
-748.404 -200.444 1489 255 255 255
89.5887 -673.192 960 255 255 255
700.218 -444.315 1372 255 255 255
209.674 -489.104 850 255 255 255
99.7329 -526.141 847 255 255 255
642.961 -540.123 1345 255 255 255
-546.067 -186.428 980 255 255 255
474.131 -132.617 890 255 255 255
54.5611 -679.201 962 255 255 255
141.489 -487.286 832 255 255 255
148.581 -482.691 831 255 255 255
120.239 -501.955 836 255 255 255
163.774 -480.409 833 255 255 255
631.026 -558.114 1344 255 255 255
134.378 -491.927 833 255 255 255
33.1242 -695.97 978 255 255 255
665.616 -507.793 1358 255 255 255
-749.03 -192.539 1476 255 255 255
691.579 -460.8 1365 255 255 255
-749.051 -184.608 1462 255 255 255
-729.636 -212.905 1663 255 255 255
102.874 -519.138 843 255 255 255
-745.059 -215.163 1559 255 255 255
589.941 -612.845 1343 255 255 255
90.7505 -555.681 864 255 255 255
679.132 172.016 1289 255 255 255
339.312 -652.088 1038 255 255 255
600.115 -599.042 1339 255 255 255
725.617 127.172 1423 255 255 255
-595.773 -278.652 1058 255 255 255
63.4607 -680.156 963 255 255 255
58.9154 -678.614 961 255 255 255
-729.464 -219.892 1662 255 255 255
-662.827 -412.606 1270 255 255 255
-746.485 -213.66 1546 255 255 255
618.734 -575.775 1342 255 255 255
-658.145 -433.85 1283 255 255 255
-619.052 -123.386 1068 255 255 255
-740.951 -180.639 1620 255 255 255
67.9565 -681.001 964 255 255 255
706.544 -432.34 1373 255 255 255
-596.455 -300.177 1066 255 255 255
-552.924 -169.965 985 255 255 255
-665.236 -464.361 1364 255 255 255
431.916 -643.394 1108 255 255 255
366.74 -644.268 1049 255 255 255
152.341 -482.946 831 255 255 255
-659.009 -425.045 1273 255 255 255
480.896 -133.418 894 255 255 255
-734.474 -224.16 1637 255 255 255
385.698 -642.252 1062 255 255 255
37.4593 -693.199 974 255 255 255
423.25 -642.97 1098 255 255 255
-26.1568 -727.665 1014 255 255 255
167.561 -480.688 833 255 255 255
-30.94 -730.596 1018 255 255 255
-667.71 -400.888 1269 255 255 255
-21.4115 -724.744 1010 255 255 255
-617.523 -127.771 1065 255 255 255
-35.7263 -732.82 1021 255 255 255
441.857 -645.471 1121 255 255 255
72.3891 -681.15 964 255 255 255
-16.7037 -721.834 1006 255 255 255
-620.544 -256.786 1086 255 255 255
-663.273 -454.767 1332 255 255 255
-664.815 -459.908 1349 255 255 255
-601.257 -264.884 1060 255 255 255
93.6186 -670.578 956 255 255 255
349.194 -648.034 1039 255 255 255
450.325 -645.161 1130 255 255 255
-616.582 -132.259 1063 255 255 255
312.505 -659.92 1027 255 255 255
-12.0335 -718.933 1002 255 255 255
488.059 -130.394 899 255 255 255
636.651 -551.813 1343 255 255 255
-217.948 360.634 965 255 255 255
301.359 -660.83 1021 255 255 255
-617.388 -137.121 1064 255 255 255
415.44 -643.653 1090 255 255 255
-672.095 -388.913 1267 255 255 255
-732.374 -225.656 1650 255 255 255
130.85 -496.245 833 255 255 255
-618.203 -141.997 1065 255 255 255
-678.886 -254.548 1192 255 255 255
-748.301 -212.294 1534 255 255 255
76.8248 -681.308 964 255 255 255
-577.214 -156.887 1011 255 255 255
-7.40039 -716.043 998 255 255 255
323.153 -657.724 1031 255 255 255
-731.321 -199.287 1668 255 255 255
109.617 -511.788 838 255 255 255
-228.012 363.72 972 255 255 255
116.683 -506.348 836 255 255 255
-619.026 -146.888 1066 255 255 255
-562.721 -162.884 994 255 255 255
-559.22 -198.182 993 255 255 255
606.557 -593.519 1340 255 255 255
699.35 -449.823 1369 255 255 255
-657.236 -266.862 1151 255 255 255
123.708 -500.969 834 255 255 255
171.355 -480.973 833 255 255 255
232.26 -517.019 871 255 255 255
-662.089 -449.959 1316 255 255 255
-750.328 -199.249 1478 255 255 255
-551.519 -173.853 982 255 255 255
144.899 -486.359 830 255 255 255
-595.108 -283.039 1056 255 255 255
724.788 133.147 1421 255 255 255
137.806 -490.98 831 255 255 255
-2.80437 -713.163 994 255 255 255
41.7162 -689.725 969 255 255 255
219.217 -497.36 855 255 255 255
459.683 -645.919 1141 255 255 255
586.589 -621.642 1349 255 255 255
-598.07 -305.749 1068 255 255 255
-661.369 -417.319 1266 255 255 255
1.75836 -711.727 992 255 255 255
155.919 -482.626 830 255 255 255
333.896 -655.537 1035 255 255 255
378.606 -643.314 1055 255 255 255
175.366 -481.843 834 255 255 255
682.321 165.839 1283 255 255 255
-617.535 -151.224 1063 255 255 255
408.458 -645.473 1084 255 255 255
-750.863 -191.382 1465 255 255 255
81.1793 -680.768 963 255 255 255
-728.216 -214.563 1678 255 255 255
649.587 -534.663 1346 255 255 255
718.301 -407.848 1373 255 255 255
359.812 -645.252 1042 255 255 255
625.253 -570.279 1343 255 255 255
6.29635 -709.584 989 255 255 255
-670.76 -370.73 1242 255 255 255
-666.223 -405.609 1265 255 255 255
612.11 -587.126 1339 255 255 255
678.871 177.541 1288 255 255 255
657.439 -524.163 1351 255 255 255
-750.029 -210.927 1522 255 255 255
225.16 -505.946 861 255 255 255
688.45 161.705 1295 255 255 255
10.8181 -708.168 987 255 255 255
-599.429 -268.774 1056 255 255 255
-673.348 -380.827 1258 255 255 255
-550.682 -177.903 980 255 255 255
286.908 -653.907 1003 255 255 255
-554.96 -192.326 986 255 255 255
-222.155 360.865 965 255 255 255
678.954 -490.633 1361 255 255 255
187.721 -485.077 838 255 255 255
159.686 -482.894 830 255 255 255
343.74 -651.472 1036 255 255 255
-675.859 -241.033 1177 255 255 255
15.3219 -706.761 985 255 255 255
183.437 -483.606 836 255 255 255
400.415 -645.456 1075 255 255 255
-661.277 -445.485 1301 255 255 255
665.366 -513.627 1356 255 255 255
-680.452 -260.423 1194 255 255 255
-610.683 -257.452 1068 255 255 255
45.9289 -686.259 964 255 255 255
179.178 -482.143 834 255 255 255
85.4391 -679.53 961 255 255 255
698.912 159.758 1328 255 255 255
-595.578 -287.964 1056 255 255 255
642.765 -545.94 1343 255 255 255
-552.4 -187.112 982 255 255 255
581.103 -634.831 1366 255 255 255
-550.975 -182.313 980 255 255 255
213.978 -494.084 850 255 255 255
-602.498 -312.807 1075 255 255 255
679.388 170.676 1277 255 255 255
-728.482 -221.737 1678 255 255 255
750.922 67.6264 1461 255 255 255
-213.753 364.476 964 255 255 255
706.681 -438.493 1372 255 255 255
19.8079 -705.365 983 255 255 255
93.2799 -543.924 853 255 255 255
-234.426 371.488 980 255 255 255
120.163 -505.346 834 255 255 255
106.037 -516.247 838 255 255 255
-735.508 -191.484 1660 255 255 255
196.134 -487.465 841 255 255 255
-659.137 -430.778 1272 255 255 255
191.802 -485.977 839 255 255 255
200.492 -488.961 843 255 255 255
276.164 -639.674 982 255 255 255
-671.638 -394.262 1265 255 255 255
686.085 -479.317 1364 255 255 255
470.368 -648.278 1155 255 255 255
692.264 -467.306 1365 255 255 255
-559.593 -166.328 988 255 255 255
-731.056 -227.425 1665 255 255 255
24.3011 -704.695 982 255 255 255
127.164 -499.987 832 255 255 255
372.287 -645.56 1050 255 255 255
306.612 -662.065 1022 255 255 255
209.288 -491.98 847 255 255 255
485.551 -133.626 894 255 255 255
-610.819 -154.218 1051 255 255 255
317.503 -660.525 1027 255 255 255
148.297 -485.437 828 255 255 255
50.2543 -684.938 962 255 255 255
141.221 -490.039 829 255 255 255
-664.215 -409.984 1260 255 255 255
163.46 -483.169 830 255 255 255
112.986 -510.154 835 255 255 255
295.249 -662.301 1015 255 255 255
673.369 -503.052 1361 255 255 255
-679.177 -265.214 1191 255 255 255
134.126 -494.688 830 255 255 255
-752.173 -198.055 1467 255 255 255
631.328 -564.368 1343 255 255 255
391.719 -644.164 1064 255 255 255
-747.592 -172.114 1601 255 255 255
353.97 -648.065 1038 255 255 255
204.634 -489.886 844 255 255 255
-729.695 -207.89 1682 255 255 255
-742.809 -227.276 1603 255 255 255
-660.441 -422.347 1263 255 255 255
328.188 -658.345 1031 255 255 255
-569.078 -200.107 1001 255 255 255
102.694 -521.976 840 255 255 255
-741.269 -182.412 1638 255 255 255
28.7275 -702.599 979 255 255 255
89.1383 -586.102 880 255 255 255
-675.628 -269.079 1184 255 255 255
618.593 -581.625 1340 255 255 255
749.999 73.8234 1459 255 255 255
-597.606 -272.637 1052 255 255 255
492.76 -130.6 899 255 255 255
724.988 139.306 1421 255 255 255
-740.97 -228.821 1616 255 255 255
-570.623 -159.496 999 255 255 255
719.288 150.358 1409 255 255 255
740.218 -367.191 1410 255 255 255
99.4438 -528.381 843 255 255 255
-752.167 -209.698 1511 255 255 255
-752.617 -190.225 1454 255 255 255
54.5634 -683.626 960 255 255 255
-745.019 -225.872 1591 255 255 255
89.497 -676.886 957 255 255 255
152.05 -485.694 828 255 255 255
-596.057 -292.901 1056 255 255 255
-611.43 -322.309 1090 255 255 255
33.1614 -701.231 977 255 255 255
699.514 -455.987 1368 255 255 255
-669.596 -398.658 1260 255 255 255
-739.036 -230.365 1629 255 255 255
430.324 -646.059 1102 255 255 255
167.24 -483.45 830 255 255 255
338.641 -655.54 1034 255 255 255
-679.139 -247.44 1182 255 255 255
713.56 -426.837 1374 255 255 255
58.9792 -683.747 960 255 255 255
-733.71 -192.86 1674 255 255 255
96.1603 -534.846 846 255 255 255
-605.967 -260.173 1059 255 255 255
-557.603 -170.07 984 255 255 255
440.25 -648.216 1115 255 255 255
63.4635 -684.59 961 255 255 255
422.062 -646.163 1093 255 255 255
68.0303 -686.155 963 255 255 255
600.907 -605.815 1339 255 255 255
-661.366 -441.691 1288 255 255 255
-729.191 -229.056 1679 255 255 255
-747.143 -224.468 1579 255 255 255
-667.644 -476.382 1382 255 255 255
365.315 -646.542 1043 255 255 255
383.85 -644.008 1055 255 255 255
-626.566 -123.941 1071 255 255 255
-673.947 -386.751 1258 255 255 255
449.098 -648.54 1125 255 255 255
90.3973 -557.38 859 255 255 255
656.729 -529.598 1348 255 255 255
130.607 -499.012 830 255 255 255
37.5012 -698.436 973 255 255 255
-21.5633 -734.573 1015 255 255 255
-662.74 -414.658 1256 255 255 255
72.4678 -686.306 963 255 255 255
-16.8224 -731.637 1011 255 255 255
723.665 145.162 1418 255 255 255
-26.3161 -736.796 1018 255 255 255
93.7179 -675.665 955 255 255 255
116.472 -509.138 833 255 255 255
109.421 -514.593 835 255 255 255
414.266 -646.799 1085 255 255 255
171.027 -483.738 830 255 255 255
637.422 -558.47 1343 255 255 255
-623.854 -128.107 1066 255 255 255
144.624 -489.104 827 255 255 255
348.501 -651.493 1035 255 255 255
-31.0672 -738.305 1020 255 255 255
-12.107 -727.988 1006 255 255 255
123.481 -503.744 831 255 255 255
664.634 -519.08 1353 255 255 255
-670.804 -367.73 1230 255 255 255
678.674 -496.467 1359 255 255 255
137.547 -493.733 828 255 255 255
-596.357 -276.738 1049 255 255 255
458.041 -648.79 1135 255 255 255
-749.18 -223.062 1567 255 255 255
-673.511 -377.786 1246 255 255 255
596.711 -613.64 1343 255 255 255
-562.502 -193.423 990 255 255 255
-737.454 -232.049 1643 255 255 255
-731.181 -201.191 1686 255 255 255
-672.549 -232.868 1161 255 255 255
-734.88 -233.45 1655 255 255 255
-7.44552 -725.073 1002 255 255 255
-597.109 -298.132 1057 255 255 255
-667.559 -403.024 1255 255 255 255
311.583 -662.664 1022 255 255 255
-740.101 -183.85 1653 255 255 255
76.9084 -686.465 963 255 255 255
155.62 -485.371 827 255 255 255
-556.185 -173.96 981 255 255 255
-622.905 -132.607 1064 255 255 255
649.864 -540.883 1345 255 255 255
606.896 -599.834 1339 255 255 255
300.466 -663.535 1016 255 255 255
706.829 -444.655 1371 255 255 255
322.516 -661.14 1027 255 255 255
-753.939 -196.859 1456 255 255 255
-2.8212 -722.168 998 255 255 255
-566.891 -162.825 992 255 255 255
-622.548 -137.224 1063 255 255 255
-754.227 -208.468 1500 255 255 255
680.719 176.571 1279 255 255 255
218.566 -499.689 851 255 255 255
-217.048 363.192 960 255 255 255
-621.804 -255.322 1078 255 255 255
-681.282 -253.475 1185 255 255 255
406.922 -647.982 1078 255 255 255
1.76797 -719.997 995 255 255 255
625.569 -576.558 1342 255 255 255
-602.97 -263.573 1053 255 255 255
41.7627 -694.932 968 255 255 255
692.453 -473.484 1364 255 255 255
720.498 -415.179 1376 255 255 255
-580.332 -156.526 1007 255 255 255
377.141 -645.633 1049 255 255 255
-622.199 -141.837 1062 255 255 255
174.821 -484.033 830 255 255 255
-751.13 -221.656 1555 255 255 255
490.227 -133.837 894 255 255 255
-660.567 -428.041 1262 255 255 255
333.238 -658.976 1031 255 255 255
81.2676 -685.921 962 255 255 255
-555.907 -178.194 980 255 255 255
-558.78 -187.8 984 255 255 255
6.32959 -717.835 992 255 255 255
-727.971 -216.602 1696 255 255 255
685.735 165.319 1277 255 255 255
187.367 -487.879 835 255 255 255
-213.76 368.549 963 255 255 255
358.751 -648.105 1037 255 255 255
-754.292 -189.067 1443 255 255 255
159.381 -485.642 827 255 255 255
183.089 -486.394 833 255 255 255
105.976 -519.68 836 255 255 255
-621.858 -146.446 1061 255 255 255
-672.947 -391.754 1255 255 255 255
-556.771 -182.798 981 255 255 255
178.837 -484.918 831 255 255 255
733.585 -388.469 1393 255 255 255
731.023 -393.232 1387 255 255 255
643.055 -552.173 1342 255 255 255
10.8639 -715.683 989 255 255 255
686.793 -485.866 1364 255 255 255
141.125 -493.379 827 255 255 255
-596.251 -281.36 1048 255 255 255
699.175 -461.823 1366 255 255 255
612.902 -593.869 1339 255 255 255
-662.304 -266.844 1149 255 255 255
-661.27 -419.311 1252 255 255 255
195.768 -490.289 838 255 255 255
398.525 -647.301 1068 255 255 255
191.442 -488.788 836 255 255 255
200.12 -491.8 840 255 255 255
-661.349 -437.892 1275 255 255 255
-644.563 -216.587 1103 255 255 255
-665.528 -407.359 1250 255 255 255
-598.737 -303.672 1059 255 255 255
673.605 -509.273 1360 255 255 255
119.944 -508.127 831 255 255 255
-733.099 -235.133 1669 255 255 255
208.903 -494.846 844 255 255 255
95.5648 -653.94 932 255 255 255
15.371 -713.541 986 255 255 255
343.06 -654.917 1032 255 255 255
126.93 -502.754 829 255 255 255
230.798 -517.649 864 255 255 255
-752.992 -220.249 1543 255 255 255
85.5318 -684.673 960 255 255 255
45.9798 -691.437 963 255 255 255
-595.384 -154.843 1024 255 255 255
213.336 -496.382 846 255 255 255
-619.179 -150.483 1056 255 255 255
148.014 -488.173 825 255 255 255
-226.375 365.179 964 255 255 255
163.148 -485.919 827 255 255 255
89.2138 -590.579 879 255 255 255
-755.7 -207.098 1488 255 255 255
496.929 -130.662 898 255 255 255
-221.238 363.425 960 255 255 255
19.8713 -712.132 984 255 255 255
-728.236 -223.844 1696 255 255 255
133.876 -497.441 827 255 255 255
112.782 -512.945 832 255 255 255
204.255 -492.732 841 255 255 255
-682.861 -259.328 1187 255 255 255
-678.163 -240.002 1170 255 255 255
93.0178 -546.206 849 255 255 255
-563.733 -166.265 986 255 255 255
223.979 -507.127 855 255 255 255
631.64 -570.637 1342 255 255 255
24.3788 -711.457 983 255 255 255
370.843 -647.844 1044 255 255 255
-600.55 -267.182 1048 255 255 255
593.814 -622.901 1350 255 255 255
102.515 -524.806 837 255 255 255
50.3098 -690.105 961 255 255 255
-756.058 -205.449 1474 255 255 255
389.849 -645.935 1057 255 255 255
-613.003 -256.435 1062 255 255 255
305.706 -664.78 1017 255 255 255
-730.778 -236.673 1682 255 255 255
714.73 -433.623 1375 255 255 255
618.923 -587.918 1339 255 255 255
-671.418 -396.428 1251 255 255 255
316.259 -662.624 1021 255 255 255
151.76 -488.433 825 255 255 255
353.267 -651.523 1034 255 255 255
99.2735 -531.234 840 255 255 255
96.9995 -668.084 944 255 255 255
706.47 -450.497 1369 255 255 255
28.8194 -709.344 980 255 255 255
-729.431 -209.861 1700 255 255 255
-602.073 -310.117 1064 255 255 255
656.513 -535.423 1346 255 255 255
-596.154 -285.983 1047 255 255 255
166.921 -486.202 827 255 255 255
-680.998 -263.873 1183 255 255 255
294.079 -664.313 1009 255 255 255
496.033 -134.349 896 255 255 255
89.6875 -682.72 957 255 255 255
327.223 -661.122 1026 255 255 255
684.922 170.672 1275 255 255 255
-675.193 -384.28 1248 255 255 255
695.145 161.955 1295 255 255 255
429.125 -649.28 1097 255 255 255
-747.124 -175.204 1634 255 255 255
664.401 -524.914 1351 255 255 255
-570.686 -194.722 995 255 255 255
-574.832 -159.442 997 255 255 255
-728.51 -231.095 1696 255 255 255
-670.2 -364.426 1217 255 255 255
587.933 -635.628 1366 255 255 255
-664.035 -411.994 1246 255 255 255
54.6235 -688.781 959 255 255 255
-677.413 -267.708 1176 255 255 255
-756.148 -195.798 1446 255 255 255
438.644 -650.925 1109 255 255 255
144.525 -492.435 825 255 255 255
-562.297 -170.178 983 255 255 255
282.311 -647.951 985 255 255 255
33.2335 -707.24 977 255 255 255
420.876 -649.332 1088 255 255 255
-755.887 -187.908 1432 255 255 255
155.512 -488.699 825 255 255 255
59.0442 -688.904 959 255 255 255
447.874 -651.894 1120 255 255 255
-739.703 -185.508 1670 255 255 255
130.366 -501.769 827 255 255 255
337.646 -658.339 1029 255 255 255
649.667 -546.71 1343 255 255 255
95.8846 -537.086 842 255 255 255
63.5336 -689.755 960 255 255 255
90.2552 -560.358 856 255 255 255
170.701 -486.493 827 255 255 255
-674.669 -375.349 1236 255 255 255
68.1056 -691.334 962 255 255 255
721.136 -421.635 1376 255 255 255
382.367 -646.332 1049 255 255 255
116.261 -511.919 830 255 255 255
-680.892 -246.179 1174 255 255 255
364.24 -649.406 1038 255 255 255
109.226 -517.39 832 255 255 255
-637.685 -125.196 1080 255 255 255
-598.707 -271.015 1044 255 255 255
123.255 -506.51 828 255 255 255
137.289 -496.476 825 255 255 255
-755.752 -219.127 1533 255 255 255
-669.358 -400.759 1246 255 255 255
-160.961 -890.548 1474 255 255 255
-609.387 -318.695 1076 255 255 255
-661.394 -424.963 1251 255 255 255
456.803 -652.202 1130 255 255 255
-566.353 -188.876 988 255 255 255
413.095 -649.921 1080 255 255 255
37.5826 -704.422 973 255 255 255
-661.751 -434.432 1263 255 255 255
93.8191 -680.776 954 255 255 255
-596.635 -290.887 1047 255 255 255
-561.438 -174.248 981 255 255 255
72.548 -691.485 962 255 255 255
-608.294 -152.422 1037 255 255 255
638.204 -565.151 1343 255 255 255
693.159 -480.025 1364 255 255 255
-607.663 -258.888 1052 255 255 255
159.27 -488.972 825 255 255 255
699.358 -468.002 1365 255 255 255
713.831 -439.155 1372 255 255 255
347.811 -654.938 1031 255 255 255
-756.951 -217.576 1520 255 255 255
-16.8919 -739.353 1013 255 255 255
-21.6524 -742.314 1017 255 255 255
687.009 -492.074 1363 255 255 255
673.356 -515.127 1358 255 255 255
-12.169 -736.402 1009 255 255 255
-747.942 -131.348 1354 255 255 255
-742.512 -238.41 1636 255 255 255
-757.861 -204.217 1463 255 255 255
174.488 -486.79 827 255 255 255
-561.731 -178.671 981 255 255 255
-7.49096 -734.191 1006 255 255 255
-563.177 -183.474 983 255 255 255
-26.4248 -744.556 1020 255 255 255
76.9935 -691.647 962 255 255 255
-674.181 -389.244 1245 255 255 255
-670.251 -484.354 1386 255 255 255
-630.225 -128.446 1067 255 255 255
-744.941 -236.967 1624 255 255 255
405.009 -649.848 1071 255 255 255
625.896 -582.852 1341 255 255 255
-583.581 -197.597 1008 255 255 255
-662.547 -416.608 1242 255 255 255
-746.018 -176.586 1649 255 255 255
310.664 -665.384 1017 255 255 255
217.916 -501.998 847 255 255 255
182.744 -489.173 830 255 255 255
299.871 -666.874 1012 255 255 255
-2.8353 -730.532 1001 255 255 255
-231.804 371.427 968 255 255 255
-571.065 -162.767 990 255 255 255
178.498 -487.683 828 255 255 255
-747.283 -235.523 1612 255 255 255
680.904 -504.154 1362 255 255 255
607.699 -606.618 1339 255 255 255
321.252 -663.244 1021 255 255 255
105.789 -522.489 833 255 255 255
